ply
format ascii 1.0
element vertex 796
property float x
property float y
property float z
property float nx
property float ny
property float nz
end_header
233.0 240.0 106.0 -1.0 3.70074332718459e-16 -2.9605948205663494e-16
234.0 240.0 105.0 -0.5144957304000854 1.904016774770972e-16 -0.8574929237365723
233.0 240.0 107.0 -0.9899494647979736 0.1414213627576828 0.0
233.0 240.0 108.0 -0.9899494647979736 0.1414213627576828 0.0
233.0 240.0 109.0 -0.8111070990562439 0.3244428336620331 -0.4866642653942108
233.0 240.0 120.0 -0.800000011920929 1.332267682489747e-16 0.6000000238418579
233.0 240.0 121.0 -1.0 1.332267682489747e-16 8.88178432935015e-17
234.0 240.0 122.0 -0.16439898312091827 1.0951172508020602e-16 0.986393928527832
234.0 241.0 106.0 -0.6000000238418579 0.800000011920929 -8.88178432935015e-17
234.0 241.0 107.0 -0.6396021246910095 0.42640143632888794 -0.6396021246910095
233.0 241.0 108.0 -1.0 3.70074332718459e-16 -2.9605948205663494e-16
234.0 241.0 107.0 -0.5144957304000854 1.904016774770972e-16 -0.8574929237365723
233.0 241.0 109.0 -0.9899494647979736 0.1414213627576828 0.0
233.0 241.0 110.0 -0.9899494647979736 0.1414213627576828 0.0
233.0 241.0 111.0 -0.8111070990562439 0.3244428336620331 -0.4866642653942108
234.0 241.0 120.0 -0.26726123690605164 0.8017837405204773 0.5345224738121033
234.0 241.0 120.0 -0.16439898312091827 1.4601562902864475e-16 0.986393928527832
234.0 241.0 121.0 -0.5547001957893372 0.8320503234863281 1.8475228535626623e-16
234.0 242.0 108.0 -0.6000000238418579 0.800000011920929 -8.88178432935015e-17
234.0 242.0 109.0 -0.6396021246910095 0.42640143632888794 -0.6396021246910095
233.0 242.0 110.0 -1.0 1.6653345369377348e-16 -2.220446049250313e-16
234.0 242.0 109.0 -0.4472135901451111 6.620091216639901e-17 -0.8944271802902222
233.0 242.0 111.0 -0.986393928527832 0.16439898312091827 0.0
233.0 242.0 112.0 -0.9899494647979736 0.1414213627576828 0.0
233.0 242.0 113.0 -0.8944271802902222 0.4472135901451111 0.0
233.0 242.0 114.0 -0.8944271802902222 0.4472135901451111 0.0
233.0 242.0 115.0 -0.8944271802902222 0.4472135901451111 0.0
233.0 242.0 116.0 -0.8944271802902222 0.4472135901451111 0.0
233.0 242.0 117.0 -0.8574929237365723 0.5144957304000854 0.0
233.0 242.0 118.0 -0.9191450476646423 0.39391928911209106 0.0
233.0 242.0 119.0 -0.9284766912460327 0.3713906705379486 8.246529471244126e-17
234.0 242.0 120.0 -0.5547001957893372 8.211212167810562e-17 0.8320503234863281
233.0 243.0 110.0 -1.0 1.4802974102831747e-16 -2.220446049250313e-16
234.0 243.0 109.0 -0.5144957304000854 1.142410011923024e-16 -0.8574929237365723
233.0 243.0 111.0 -1.0 1.268826370578278e-16 0.0
233.0 243.0 112.0 -1.0 0.0 0.0
233.0 243.0 113.0 -1.0 0.0 0.0
233.0 243.0 114.0 -1.0 0.0 0.0
233.0 243.0 115.0 -1.0 0.0 0.0
233.0 243.0 116.0 -1.0 0.0 0.0
233.0 243.0 117.0 -1.0 8.88178432935015e-17 1.77635686587003e-16
234.0 243.0 118.0 -0.5547001957893372 9.237614267813311e-17 0.8320503234863281
234.0 243.0 118.0 -0.5570859909057617 0.7427813410758972 0.3713906705379486
234.0 243.0 119.0 -0.4472135901451111 0.8944271802902222 2.97904108057518e-16
234.0 244.0 110.0 -0.6000000238418579 0.800000011920929 -8.88178432935015e-17
234.0 244.0 111.0 -0.6396021246910095 0.42640143632888794 -0.6396021246910095
233.0 244.0 112.0 -1.0 3.70074332718459e-16 -2.9605948205663494e-16
234.0 244.0 111.0 -0.5144957304000854 1.904016774770972e-16 -0.8574929237365723
233.0 244.0 113.0 -1.0 1.1102230246251565e-16 0.0
233.0 244.0 114.0 -1.0 1.1102230246251565e-16 0.0
233.0 244.0 115.0 -1.0 1.1102230246251565e-16 0.0
233.0 244.0 116.0 -1.0 1.1102230246251565e-16 0.0
233.0 244.0 117.0 -1.0 1.332267682489747e-16 8.88178432935015e-17
234.0 244.0 118.0 -0.3162277638912201 1.0532500665805052e-16 0.9486833214759827
234.0 245.0 112.0 -0.6000000238418579 0.800000011920929 -8.88178432935015e-17
234.0 245.0 113.0 -0.4472135901451111 0.8944271802902222 0.0
234.0 245.0 114.0 -0.4472135901451111 0.8944271802902222 0.0
234.0 245.0 115.0 -0.4472135901451111 0.8944271802902222 0.0
234.0 245.0 116.0 -0.4472135901451111 0.8944271802902222 0.0
234.0 245.0 117.0 -0.4472135901451111 0.8944271802902222 2.97904108057518e-16
234.0 139.0 174.0 -1.0 -6.34413185289139e-17 -1.268826370578278e-16
235.0 139.0 173.0 -0.27216553688049316 -0.6804138422012329 -0.6804138422012329
235.0 138.0 174.0 -0.4472135901451111 -0.8944271802902222 -9.930136494087607e-17
235.0 138.0 175.0 -0.4472135901451111 -0.8944271802902222 0.0
234.0 139.0 175.0 -1.0 -1.332267682489747e-16 0.0
235.0 138.0 176.0 -0.4472135901451111 -0.8944271802902222 0.0
234.0 139.0 176.0 -0.8682431578636169 -0.49613893032073975 0.0
235.0 138.0 177.0 -0.4472135901451111 -0.8944271802902222 6.620091216639901e-17
234.0 139.0 177.0 -0.8320503234863281 -0.5547001957893372 1.2316818582588088e-16
235.0 139.0 178.0 -0.22941572964191437 -0.6882472038269043 0.6882472038269043
234.0 140.0 170.0 -0.8574929237365723 -0.5144957304000854 -7.61606696673499e-17
235.0 140.0 169.0 -0.10050377994775772 -0.703526496887207 -0.703526496887207
235.0 139.0 170.0 -0.5144957304000854 -0.8574929237365723 -1.142410011923024e-16
235.0 139.0 171.0 -0.39391928911209106 -0.9191450476646423 0.0
234.0 140.0 171.0 -0.5144957304000854 -0.6859943270683289 -0.5144957304000854
235.0 139.0 172.0 -0.5144957304000854 -0.8574929237365723 0.0
235.0 139.0 173.0 -0.31799936294555664 -0.847998321056366 -0.423999160528183
234.0 140.0 174.0 -0.6666666865348816 -0.6666666865348816 0.3333333432674408
234.0 140.0 175.0 -0.5298129320144653 -0.662266194820404 -0.5298129320144653
235.0 139.0 178.0 -0.26726123690605164 -0.8017837405204773 0.5345224738121033
234.0 140.0 178.0 -0.7453559637069702 -0.596284806728363 0.2981424033641815
235.0 139.0 179.0 -0.4472135901451111 -0.8944271802902222 0.0
234.0 140.0 179.0 -0.8944271802902222 -0.4472135901451111 0.0
235.0 139.0 180.0 -0.4472135901451111 -0.8944271802902222 0.0
234.0 140.0 180.0 -0.8944271802902222 -0.4472135901451111 0.0
235.0 139.0 181.0 -0.4472135901451111 -0.8944271802902222 0.0
234.0 140.0 181.0 -0.8944271802902222 -0.4472135901451111 0.0
235.0 139.0 182.0 -0.4472135901451111 -0.8944271802902222 0.0
234.0 140.0 182.0 -0.8944271802902222 -0.4472135901451111 0.0
235.0 139.0 183.0 -0.4472135901451111 -0.8944271802902222 0.0
234.0 140.0 183.0 -0.8682431578636169 -0.49613893032073975 0.0
235.0 139.0 184.0 -0.4472135901451111 -0.8944271802902222 0.0
234.0 140.0 184.0 -1.0 -1.1102230246251565e-16 0.0
235.0 139.0 185.0 -0.4472135901451111 -0.8944271802902222 0.0
234.0 140.0 185.0 -1.0 -1.1102230246251565e-16 0.0
235.0 139.0 186.0 -0.4472135901451111 -0.8944271802902222 0.0
234.0 140.0 186.0 -1.0 -1.1102230246251565e-16 0.0
235.0 139.0 187.0 -0.5299989581108093 -0.847998321056366 9.414672608802532e-17
234.0 140.0 187.0 -1.0 -4.440892164675075e-17 1.77635686587003e-16
235.0 140.0 188.0 -0.27216553688049316 -0.6804138422012329 0.6804138422012329
235.0 141.0 167.0 0.14744195342063904 -0.4423258602619171 -0.8846517205238342
235.0 140.0 168.0 8.88178432935015e-17 -1.0 -8.88178432935015e-17
235.0 140.0 169.0 2.7541243192749073e-17 -0.8682431578636169 -0.49613893032073975
234.0 141.0 184.0 -0.5656854510307312 -0.7071067690849304 0.4242640733718872
234.0 141.0 185.0 -0.8944271802902222 -0.4472135901451111 0.0
234.0 141.0 186.0 -0.8944271802902222 -0.4472135901451111 0.0
234.0 141.0 187.0 -0.8682431578636169 -0.49613893032073975 0.0
235.0 140.0 188.0 -0.3244428336620331 -0.8111070990562439 0.4866642653942108
234.0 141.0 188.0 -1.0 -6.34413185289139e-17 0.0
235.0 140.0 189.0 -0.4472135901451111 -0.8944271802902222 6.620091216639901e-17
234.0 141.0 189.0 -1.0 -4.440892164675075e-17 1.77635686587003e-16
235.0 141.0 190.0 -0.27216553688049316 -0.6804138422012329 0.6804138422012329
235.0 142.0 167.0 0.3713906705379486 0.0 -0.9284766912460327
234.0 142.0 188.0 -0.5656854510307312 -0.7071067690849304 0.4242640733718872
234.0 142.0 189.0 -0.8682431578636169 -0.49613893032073975 0.0
235.0 141.0 190.0 -0.3244428336620331 -0.8111070990562439 0.4866642653942108
234.0 142.0 190.0 -1.0 -6.34413185289139e-17 0.0
235.0 141.0 191.0 -0.4472135901451111 -0.8944271802902222 6.620091216639901e-17
234.0 142.0 191.0 -1.0 -4.440892164675075e-17 1.77635686587003e-16
235.0 142.0 192.0 -0.27216553688049316 -0.6804138422012329 0.6804138422012329
235.0 143.0 166.0 1.0 -4.440892164675075e-17 -1.332267682489747e-16
235.0 143.0 167.0 0.8320503234863281 -6.158409291294044e-17 -0.5547001957893372
235.0 143.0 167.0 0.39391928911209106 5.831177302712557e-17 -0.9191450476646423
234.0 143.0 190.0 -0.7453559637069702 -0.2981424033641815 0.596284806728363
234.0 143.0 191.0 -1.0 -3.700743525707937e-17 0.0
235.0 142.0 192.0 -0.3244428336620331 -0.8111070990562439 0.4866642653942108
234.0 143.0 192.0 -1.0 -6.34413185289139e-17 0.0
235.0 142.0 193.0 -0.4472135901451111 -0.8944271802902222 6.620091216639901e-17
234.0 143.0 193.0 -1.0 -4.440892164675075e-17 1.77635686587003e-16
235.0 143.0 194.0 -0.27216553688049316 -0.6804138422012329 0.6804138422012329
235.0 144.0 166.0 1.0 0.0 -1.332267682489747e-16
235.0 144.0 167.0 0.986393928527832 0.16439898312091827 0.0
235.0 144.0 168.0 0.8320503234863281 0.5547001957893372 -1.8475228535626623e-16
235.0 144.0 168.0 0.9615239500999451 0.2747211158275604 0.0
235.0 144.0 169.0 0.771516740322113 0.15430335700511932 -0.6172134280204773
235.0 144.0 169.0 0.5570859909057617 0.7427813410758972 -0.3713906705379486
235.0 144.0 169.0 0.5144957304000854 1.904016774770972e-16 -0.8574929237365723
234.0 144.0 190.0 -0.7427813410758972 -0.5570859909057617 0.3713906705379486
234.0 144.0 191.0 -0.8682431578636169 -0.49613893032073975 0.0
234.0 144.0 192.0 -1.0 0.0 0.0
234.0 144.0 193.0 -1.0 -3.700743525707937e-17 0.0
235.0 143.0 194.0 -0.3244428336620331 -0.8111070990562439 0.4866642653942108
234.0 144.0 194.0 -1.0 -6.34413185289139e-17 0.0
235.0 143.0 195.0 -0.4472135901451111 -0.8944271802902222 6.620091216639901e-17
234.0 144.0 195.0 -1.0 -4.440892164675075e-17 1.77635686587003e-16
235.0 144.0 196.0 -0.27216553688049316 -0.6804138422012329 0.6804138422012329
235.0 145.0 166.0 1.0 1.6653345369377348e-16 -1.1102230246251565e-16
235.0 145.0 167.0 1.0 1.268826370578278e-16 0.0
235.0 145.0 168.0 1.0 0.0 0.0
235.0 145.0 169.0 0.9805806875228882 0.1961161345243454 0.0
235.0 145.0 170.0 0.8320503234863281 0.5547001957893372 -1.8475228535626623e-16
235.0 145.0 170.0 0.9701424837112427 -0.24253562092781067 0.0
235.0 145.0 171.0 0.8164966106414795 -0.40824830532073975 -0.40824830532073975
235.0 145.0 171.0 0.40824830532073975 0.8164966106414795 -0.40824830532073975
235.0 145.0 171.0 0.13018891215324402 -0.39056673645973206 -0.9113223552703857
234.0 145.0 192.0 -0.5656854510307312 -0.7071067690849304 0.4242640733718872
234.0 145.0 193.0 -0.8682431578636169 -0.49613893032073975 0.0
234.0 145.0 194.0 -1.0 0.0 0.0
234.0 145.0 195.0 -1.0 -3.700743525707937e-17 0.0
235.0 144.0 196.0 -0.3244428336620331 -0.8111070990562439 0.4866642653942108
234.0 145.0 196.0 -1.0 -6.34413185289139e-17 0.0
235.0 144.0 197.0 -0.4472135901451111 -0.8944271802902222 6.620091216639901e-17
234.0 145.0 197.0 -1.0 -4.440892164675075e-17 1.77635686587003e-16
235.0 145.0 198.0 -0.27216553688049316 -0.6804138422012329 0.6804138422012329
235.0 146.0 168.0 1.0 2.7755575615628914e-16 -1.6653345369377348e-16
235.0 146.0 169.0 0.7453559637069702 -0.2981424033641815 -0.596284806728363
235.0 146.0 169.0 0.40824830532073975 -0.40824830532073975 -0.8164966106414795
235.0 145.0 170.0 0.4472135901451111 -0.8944271802902222 -6.620091216639901e-17
235.0 145.0 171.0 0.3244428336620331 -0.8111070990562439 -0.4866642653942108
234.0 146.0 194.0 -0.5656854510307312 -0.7071067690849304 0.4242640733718872
234.0 146.0 195.0 -0.8944271802902222 -0.4472135901451111 0.0
234.0 146.0 196.0 -0.8944271802902222 -0.4472135901451111 0.0
234.0 146.0 197.0 -0.8682431578636169 -0.49613893032073975 0.0
235.0 145.0 198.0 -0.3244428336620331 -0.8111070990562439 0.4866642653942108
234.0 146.0 198.0 -1.0 -6.34413185289139e-17 0.0
235.0 145.0 199.0 -0.5299989581108093 -0.847998321056366 9.414672608802532e-17
234.0 146.0 199.0 -1.0 -5.551115123125783e-17 1.6653345369377348e-16
235.0 146.0 200.0 -0.3244428336620331 -0.4866642653942108 0.8111070990562439
235.0 147.0 169.0 0.3162277638912201 0.0 -0.9486833214759827
234.0 147.0 198.0 -0.7453559637069702 -0.2981424033641815 0.596284806728363
234.0 147.0 199.0 -1.0 0.0 1.4802974102831747e-16
235.0 147.0 200.0 -0.4285714328289032 -0.2857142984867096 0.8571428656578064
235.0 148.0 169.0 0.3162277638912201 0.0 -0.9486833214759827
234.0 148.0 198.0 -0.8574929237365723 0.0 0.5144957304000854
234.0 148.0 199.0 -1.0 -3.700743525707937e-17 0.0
235.0 147.0 200.0 -0.3244428336620331 -0.8111070990562439 0.4866642653942108
234.0 148.0 200.0 -1.0 -6.34413185289139e-17 0.0
235.0 147.0 201.0 -0.4472135901451111 -0.8944271802902222 6.620091216639901e-17
234.0 148.0 201.0 -1.0 -4.440892164675075e-17 1.77635686587003e-16
235.0 148.0 202.0 -0.27216553688049316 -0.6804138422012329 0.6804138422012329
235.0 149.0 169.0 0.3713906705379486 0.0 -0.9284766912460327
234.0 149.0 198.0 -0.8574929237365723 0.0 0.5144957304000854
234.0 149.0 199.0 -1.0 0.0 0.0
234.0 149.0 200.0 -1.0 0.0 0.0
234.0 149.0 201.0 -1.0 -3.700743525707937e-17 0.0
235.0 148.0 202.0 -0.3244428336620331 -0.8111070990562439 0.4866642653942108
234.0 149.0 202.0 -1.0 -6.34413185289139e-17 0.0
235.0 148.0 203.0 -0.4472135901451111 -0.8944271802902222 6.620091216639901e-17
234.0 149.0 203.0 -1.0 -5.551115123125783e-17 1.6653345369377348e-16
235.0 149.0 204.0 -0.3244428336620331 -0.4866642653942108 0.8111070990562439
235.0 150.0 168.0 1.0 -4.440892164675075e-17 -1.332267682489747e-16
235.0 150.0 169.0 0.8574929237365723 -7.61606696673499e-17 -0.5144957304000854
235.0 150.0 169.0 0.39391928911209106 0.0 -0.9191450476646423
234.0 150.0 198.0 -0.8574929237365723 0.0 0.5144957304000854
234.0 150.0 199.0 -1.0 0.0 0.0
234.0 150.0 200.0 -1.0 0.0 0.0
234.0 150.0 201.0 -1.0 0.0 0.0
234.0 150.0 202.0 -1.0 0.0 0.0
234.0 150.0 203.0 -1.0 0.0 1.4802974102831747e-16
235.0 150.0 204.0 -0.4285714328289032 -0.2857142984867096 0.8571428656578064
235.0 151.0 168.0 1.0 0.0 -1.332267682489747e-16
235.0 151.0 169.0 0.8320503234863281 0.0 -0.5547001957893372
235.0 151.0 169.0 0.4472135901451111 6.620091216639901e-17 -0.8944271802902222
234.0 151.0 198.0 -0.8574929237365723 0.0 0.5144957304000854
234.0 151.0 199.0 -1.0 0.0 0.0
234.0 151.0 200.0 -1.0 0.0 0.0
234.0 151.0 201.0 -1.0 0.0 0.0
234.0 151.0 202.0 -1.0 0.0 0.0
234.0 151.0 203.0 -1.0 -3.700743525707937e-17 0.0
235.0 150.0 204.0 -0.3244428336620331 -0.8111070990562439 0.4866642653942108
234.0 151.0 204.0 -1.0 -6.34413185289139e-17 0.0
235.0 150.0 205.0 -0.4472135901451111 -0.8944271802902222 6.620091216639901e-17
234.0 151.0 205.0 -1.0 -4.440892164675075e-17 1.77635686587003e-16
235.0 151.0 206.0 -0.27216553688049316 -0.6804138422012329 0.6804138422012329
235.0 152.0 168.0 1.0 0.0 -1.332267682489747e-16
235.0 152.0 169.0 0.986393928527832 0.16439898312091827 0.0
235.0 152.0 170.0 0.8320503234863281 0.5547001957893372 -1.8475228535626623e-16
235.0 152.0 170.0 0.9615239500999451 0.2747211158275604 0.0
235.0 152.0 171.0 0.7844645380973816 0.1961161345243454 -0.588348388671875
235.0 152.0 171.0 0.5570859909057617 0.7427813410758972 -0.3713906705379486
235.0 152.0 171.0 0.5144957304000854 1.142410011923024e-16 -0.8574929237365723
234.0 152.0 198.0 -0.8320503234863281 0.0 0.5547001957893372
234.0 152.0 199.0 -1.0 0.0 0.0
234.0 152.0 200.0 -1.0 0.0 0.0
234.0 152.0 201.0 -1.0 0.0 0.0
234.0 152.0 202.0 -1.0 0.0 0.0
234.0 152.0 203.0 -1.0 0.0 0.0
234.0 152.0 204.0 -1.0 0.0 0.0
234.0 152.0 205.0 -1.0 -3.700743525707937e-17 0.0
235.0 151.0 206.0 -0.3244428336620331 -0.8111070990562439 0.4866642653942108
234.0 152.0 206.0 -1.0 -6.34413185289139e-17 0.0
235.0 151.0 207.0 -0.4472135901451111 -0.8944271802902222 6.620091216639901e-17
234.0 152.0 207.0 -1.0 -5.551115123125783e-17 1.6653345369377348e-16
235.0 152.0 208.0 -0.3244428336620331 -0.4866642653942108 0.8111070990562439
235.0 153.0 168.0 1.0 0.0 -1.332267682489747e-16
235.0 153.0 169.0 1.0 0.0 0.0
235.0 153.0 170.0 1.0 0.0 0.0
235.0 153.0 171.0 0.8574929237365723 0.0 -0.5144957304000854
235.0 153.0 171.0 0.4472135901451111 0.0 -0.8944271802902222
234.0 153.0 196.0 -0.8451542258262634 0.16903084516525269 0.5070925354957581
234.0 153.0 197.0 -0.9615239500999451 0.2747211158275604 0.0
234.0 153.0 198.0 -0.9805806875228882 0.1961161345243454 0.0
234.0 153.0 199.0 -1.0 0.0 0.0
234.0 153.0 200.0 -1.0 0.0 0.0
234.0 153.0 201.0 -1.0 0.0 0.0
234.0 153.0 202.0 -1.0 0.0 0.0
234.0 153.0 203.0 -1.0 0.0 0.0
234.0 153.0 204.0 -1.0 0.0 0.0
234.0 153.0 205.0 -1.0 0.0 0.0
234.0 153.0 206.0 -1.0 0.0 0.0
234.0 153.0 207.0 -1.0 0.0 1.4802974102831747e-16
235.0 153.0 208.0 -0.4285714328289032 -0.2857142984867096 0.8571428656578064
235.0 154.0 168.0 1.0 0.0 -1.332267682489747e-16
235.0 154.0 169.0 1.0 0.0 0.0
235.0 154.0 170.0 0.8682431578636169 -0.49613893032073975 0.0
235.0 154.0 171.0 0.8111070990562439 -0.4866642653942108 -0.3244428336620331
235.0 154.0 171.0 0.4285714328289032 -0.2857142984867096 -0.8571428656578064
234.0 154.0 196.0 -0.8320503234863281 0.0 0.5547001957893372
234.0 154.0 197.0 -1.0 0.0 0.0
234.0 154.0 198.0 -1.0 0.0 0.0
234.0 154.0 199.0 -1.0 0.0 0.0
234.0 154.0 200.0 -1.0 0.0 0.0
234.0 154.0 201.0 -1.0 0.0 0.0
234.0 154.0 202.0 -1.0 0.0 0.0
234.0 154.0 203.0 -1.0 0.0 0.0
234.0 154.0 204.0 -1.0 0.0 0.0
234.0 154.0 205.0 -1.0 0.0 0.0
234.0 154.0 206.0 -1.0 0.0 0.0
234.0 154.0 207.0 -1.0 -3.700743525707937e-17 0.0
235.0 153.0 208.0 -0.3244428336620331 -0.8111070990562439 0.4866642653942108
234.0 154.0 208.0 -1.0 -6.34413185289139e-17 0.0
235.0 153.0 209.0 -0.4472135901451111 -0.8944271802902222 6.620091216639901e-17
234.0 154.0 209.0 -1.0 -5.551115123125783e-17 1.6653345369377348e-16
235.0 154.0 210.0 -0.3244428336620331 -0.4866642653942108 0.8111070990562439
235.0 155.0 168.0 1.0 0.0 -1.332267682489747e-16
235.0 155.0 169.0 0.7453559637069702 -0.2981424033641815 -0.596284806728363
235.0 155.0 169.0 0.3244428336620331 -0.4866642653942108 -0.8111070990562439
235.0 154.0 170.0 0.4472135901451111 -0.8944271802902222 -6.620091216639901e-17
235.0 154.0 171.0 0.3244428336620331 -0.8111070990562439 -0.4866642653942108
234.0 155.0 192.0 -0.8241633772850037 0.1373605579137802 0.5494422316551208
234.0 155.0 193.0 -0.8944271802902222 0.4472135901451111 0.0
234.0 155.0 194.0 -0.8944271802902222 0.4472135901451111 0.0
234.0 155.0 195.0 -0.9615239500999451 0.2747211158275604 0.0
234.0 155.0 196.0 -0.9805806875228882 0.1961161345243454 0.0
234.0 155.0 197.0 -1.0 0.0 0.0
234.0 155.0 198.0 -1.0 0.0 0.0
234.0 155.0 199.0 -1.0 0.0 0.0
234.0 155.0 200.0 -1.0 0.0 0.0
234.0 155.0 201.0 -1.0 0.0 0.0
234.0 155.0 202.0 -1.0 0.0 0.0
234.0 155.0 203.0 -1.0 0.0 0.0
234.0 155.0 204.0 -1.0 0.0 0.0
234.0 155.0 205.0 -1.0 0.0 0.0
234.0 155.0 206.0 -1.0 0.0 0.0
234.0 155.0 207.0 -1.0 0.0 0.0
234.0 155.0 208.0 -1.0 0.0 0.0
234.0 155.0 209.0 -1.0 0.0 1.4802974102831747e-16
235.0 155.0 210.0 -0.4285714328289032 -0.2857142984867096 0.8571428656578064
235.0 156.0 168.0 1.0 0.0 -1.332267682489747e-16
235.0 156.0 169.0 0.8574929237365723 0.0 -0.5144957304000854
235.0 156.0 169.0 0.4472135901451111 0.0 -0.8944271802902222
234.0 156.0 190.0 -0.8241633772850037 0.1373605579137802 0.5494422316551208
234.0 156.0 191.0 -0.9615239500999451 0.2747211158275604 0.0
234.0 156.0 192.0 -0.9805806875228882 0.1961161345243454 0.0
234.0 156.0 193.0 -1.0 0.0 0.0
234.0 156.0 194.0 -1.0 0.0 0.0
234.0 156.0 195.0 -1.0 0.0 0.0
234.0 156.0 196.0 -1.0 0.0 0.0
234.0 156.0 197.0 -1.0 0.0 0.0
234.0 156.0 198.0 -1.0 0.0 0.0
234.0 156.0 199.0 -1.0 0.0 0.0
234.0 156.0 200.0 -1.0 0.0 0.0
234.0 156.0 201.0 -1.0 0.0 0.0
234.0 156.0 202.0 -1.0 1.268826370578278e-16 0.0
234.0 156.0 203.0 -1.0 1.268826370578278e-16 0.0
234.0 156.0 204.0 -1.0 0.0 0.0
234.0 156.0 205.0 -1.0 0.0 0.0
234.0 156.0 206.0 -1.0 0.0 0.0
234.0 156.0 207.0 -1.0 0.0 0.0
234.0 156.0 208.0 -1.0 0.0 0.0
234.0 156.0 209.0 -1.0 -3.700743525707937e-17 0.0
235.0 155.0 210.0 -0.3244428336620331 -0.8111070990562439 0.4866642653942108
234.0 156.0 210.0 -1.0 -6.34413185289139e-17 0.0
235.0 155.0 211.0 -0.4472135901451111 -0.8944271802902222 6.620091216639901e-17
234.0 156.0 211.0 -1.0 -5.551115123125783e-17 1.6653345369377348e-16
235.0 156.0 212.0 -0.3244428336620331 -0.4866642653942108 0.8111070990562439
235.0 157.0 168.0 0.800000011920929 -0.6000000238418579 -1.332267682489747e-16
235.0 157.0 169.0 0.8111070990562439 -0.4866642653942108 -0.3244428336620331
235.0 157.0 169.0 0.4285714328289032 -0.2857142984867096 -0.8571428656578064
234.0 157.0 186.0 -0.8451542258262634 0.16903084516525269 0.5070925354957581
234.0 157.0 187.0 -0.8944271802902222 0.4472135901451111 0.0
234.0 157.0 188.0 -0.8944271802902222 0.4472135901451111 0.0
234.0 157.0 189.0 -0.9615239500999451 0.2747211158275604 0.0
234.0 157.0 190.0 -0.9805806875228882 0.1961161345243454 0.0
234.0 157.0 191.0 -1.0 0.0 0.0
234.0 157.0 192.0 -1.0 0.0 0.0
234.0 157.0 193.0 -1.0 0.0 0.0
234.0 157.0 194.0 -1.0 0.0 0.0
234.0 157.0 195.0 -1.0 0.0 0.0
234.0 157.0 196.0 -1.0 0.0 0.0
234.0 157.0 197.0 -1.0 0.0 0.0
234.0 157.0 198.0 -1.0 0.0 0.0
234.0 157.0 199.0 -1.0 0.0 0.0
234.0 157.0 200.0 -1.0 0.0 0.0
234.0 157.0 201.0 -1.0 8.88178432935015e-17 1.77635686587003e-16
235.0 157.0 202.0 -0.5144957304000854 1.142410011923024e-16 0.8574929237365723
235.0 157.0 202.0 -0.5570859909057617 0.7427813410758972 0.3713906705379486
235.0 157.0 203.0 -0.6396021246910095 0.42640143632888794 -0.6396021246910095
234.0 157.0 204.0 -1.0 3.70074332718459e-16 -2.9605948205663494e-16
235.0 157.0 203.0 -0.5144957304000854 1.904016774770972e-16 -0.8574929237365723
234.0 157.0 205.0 -1.0 1.268826370578278e-16 0.0
234.0 157.0 206.0 -1.0 0.0 0.0
234.0 157.0 207.0 -1.0 0.0 0.0
234.0 157.0 208.0 -1.0 1.268826370578278e-16 0.0
234.0 157.0 209.0 -1.0 1.268826370578278e-16 0.0
234.0 157.0 210.0 -1.0 0.0 0.0
234.0 157.0 211.0 -1.0 0.0 1.332267682489747e-16
235.0 157.0 212.0 -0.4472135901451111 0.0 0.8944271802902222
235.0 158.0 167.0 0.12309148907661438 -0.4923659563064575 -0.861640453338623
235.0 157.0 168.0 0.4472135901451111 -0.8944271802902222 -6.620091216639901e-17
235.0 157.0 169.0 0.3244428336620331 -0.8111070990562439 -0.4866642653942108
234.0 158.0 186.0 -0.8320503234863281 0.0 0.5547001957893372
234.0 158.0 187.0 -1.0 0.0 0.0
234.0 158.0 188.0 -1.0 0.0 0.0
234.0 158.0 189.0 -1.0 0.0 0.0
234.0 158.0 190.0 -1.0 0.0 0.0
234.0 158.0 191.0 -1.0 0.0 0.0
234.0 158.0 192.0 -1.0 0.0 0.0
234.0 158.0 193.0 -1.0 0.0 0.0
234.0 158.0 194.0 -1.0 0.0 0.0
234.0 158.0 195.0 -1.0 0.0 0.0
234.0 158.0 196.0 -1.0 1.268826370578278e-16 0.0
234.0 158.0 197.0 -1.0 1.1102230246251565e-16 0.0
234.0 158.0 198.0 -1.0 1.1102230246251565e-16 0.0
234.0 158.0 199.0 -1.0 1.1102230246251565e-16 0.0
234.0 158.0 200.0 -1.0 1.1102230246251565e-16 0.0
234.0 158.0 201.0 -1.0 1.332267682489747e-16 8.88178432935015e-17
235.0 158.0 202.0 -0.4472135901451111 6.620091216639901e-17 0.8944271802902222
235.0 158.0 204.0 -0.6000000238418579 0.800000011920929 -8.88178432935015e-17
235.0 158.0 205.0 -0.6396021246910095 0.42640143632888794 -0.6396021246910095
234.0 158.0 206.0 -1.0 3.70074332718459e-16 -2.9605948205663494e-16
235.0 158.0 205.0 -0.5144957304000854 1.904016774770972e-16 -0.8574929237365723
234.0 158.0 207.0 -1.0 2.220446049250313e-16 1.332267682489747e-16
235.0 158.0 208.0 -0.5144957304000854 1.904016774770972e-16 0.8574929237365723
235.0 158.0 208.0 -0.5570859909057617 0.7427813410758972 0.3713906705379486
235.0 158.0 209.0 -0.6396021246910095 0.42640143632888794 -0.6396021246910095
234.0 158.0 210.0 -1.0 3.70074332718459e-16 -2.9605948205663494e-16
235.0 158.0 209.0 -0.5144957304000854 1.904016774770972e-16 -0.8574929237365723
234.0 158.0 211.0 -1.0 1.332267682489747e-16 8.88178432935015e-17
235.0 158.0 212.0 -0.4472135901451111 6.620091216639901e-17 0.8944271802902222
235.0 159.0 167.0 0.3162277638912201 0.0 -0.9486833214759827
234.0 159.0 184.0 -0.8451542258262634 0.16903084516525269 0.5070925354957581
234.0 159.0 185.0 -0.9615239500999451 0.2747211158275604 0.0
234.0 159.0 186.0 -0.9805806875228882 0.1961161345243454 0.0
234.0 159.0 187.0 -1.0 0.0 0.0
234.0 159.0 188.0 -1.0 0.0 0.0
234.0 159.0 189.0 -1.0 0.0 0.0
234.0 159.0 190.0 -1.0 0.0 0.0
234.0 159.0 191.0 -1.0 0.0 0.0
234.0 159.0 192.0 -1.0 1.268826370578278e-16 0.0
234.0 159.0 193.0 -1.0 1.1102230246251565e-16 0.0
234.0 159.0 194.0 -1.0 1.1102230246251565e-16 0.0
234.0 159.0 195.0 -1.0 2.220446049250313e-16 1.332267682489747e-16
235.0 159.0 196.0 -0.5144957304000854 1.904016774770972e-16 0.8574929237365723
235.0 159.0 196.0 -0.5570859909057617 0.7427813410758972 0.3713906705379486
235.0 159.0 197.0 -0.4472135901451111 0.8944271802902222 0.0
235.0 159.0 198.0 -0.4472135901451111 0.8944271802902222 0.0
235.0 159.0 199.0 -0.4472135901451111 0.8944271802902222 0.0
235.0 159.0 200.0 -0.4472135901451111 0.8944271802902222 0.0
235.0 159.0 201.0 -0.8320503234863281 0.5547001957893372 1.8475228535626623e-16
235.0 159.0 206.0 -0.6000000238418579 0.800000011920929 -8.88178432935015e-17
235.0 159.0 207.0 -0.8320503234863281 0.5547001957893372 1.8475228535626623e-16
235.0 159.0 210.0 -0.6000000238418579 0.800000011920929 -8.88178432935015e-17
235.0 159.0 211.0 -0.8320503234863281 0.5547001957893372 1.8475228535626623e-16
235.0 160.0 167.0 0.3162277638912201 0.0 -0.9486833214759827
234.0 160.0 184.0 -0.8574929237365723 0.0 0.5144957304000854
234.0 160.0 185.0 -1.0 0.0 0.0
234.0 160.0 186.0 -1.0 0.0 0.0
234.0 160.0 187.0 -1.0 0.0 0.0
234.0 160.0 188.0 -1.0 0.0 0.0
234.0 160.0 189.0 -1.0 0.0 0.0
234.0 160.0 190.0 -1.0 1.268826370578278e-16 0.0
234.0 160.0 191.0 -1.0 2.220446049250313e-16 1.332267682489747e-16
235.0 160.0 192.0 -0.5144957304000854 1.904016774770972e-16 0.8574929237365723
235.0 160.0 192.0 -0.5570859909057617 0.7427813410758972 0.3713906705379486
235.0 160.0 193.0 -0.4472135901451111 0.8944271802902222 0.0
235.0 160.0 194.0 -0.4472135901451111 0.8944271802902222 0.0
235.0 160.0 195.0 -0.8320503234863281 0.5547001957893372 1.8475228535626623e-16
235.0 161.0 167.0 0.3162277638912201 0.0 -0.9486833214759827
234.0 161.0 184.0 -0.8320503234863281 0.0 0.5547001957893372
234.0 161.0 185.0 -1.0 0.0 0.0
234.0 161.0 186.0 -1.0 0.0 0.0
234.0 161.0 187.0 -1.0 0.0 0.0
234.0 161.0 188.0 -1.0 1.268826370578278e-16 0.0
234.0 161.0 189.0 -1.0 2.220446049250313e-16 1.332267682489747e-16
235.0 161.0 190.0 -0.5144957304000854 1.904016774770972e-16 0.8574929237365723
235.0 161.0 190.0 -0.5570859909057617 0.7427813410758972 0.3713906705379486
235.0 161.0 191.0 -0.8320503234863281 0.5547001957893372 1.8475228535626623e-16
235.0 162.0 167.0 0.3162277638912201 0.0 -0.9486833214759827
234.0 162.0 182.0 -0.8241633772850037 0.1373605579137802 0.5494422316551208
234.0 162.0 183.0 -0.9615239500999451 0.2747211158275604 0.0
234.0 162.0 184.0 -0.9805806875228882 0.1961161345243454 0.0
234.0 162.0 185.0 -1.0 0.0 0.0
234.0 162.0 186.0 -1.0 0.0 0.0
234.0 162.0 187.0 -1.0 8.88178432935015e-17 1.77635686587003e-16
235.0 162.0 188.0 -0.5144957304000854 1.142410011923024e-16 0.8574929237365723
235.0 162.0 188.0 -0.5570859909057617 0.7427813410758972 0.3713906705379486
235.0 162.0 189.0 -0.8320503234863281 0.5547001957893372 1.8475228535626623e-16
235.0 163.0 167.0 0.3162277638912201 0.0 -0.9486833214759827
234.0 163.0 180.0 -0.8451542258262634 0.16903084516525269 0.5070925354957581
234.0 163.0 181.0 -0.9615239500999451 0.2747211158275604 0.0
234.0 163.0 182.0 -0.9805806875228882 0.1961161345243454 0.0
234.0 163.0 183.0 -1.0 0.0 0.0
234.0 163.0 184.0 -1.0 0.0 0.0
234.0 163.0 185.0 -1.0 0.0 0.0
234.0 163.0 186.0 -1.0 0.0 0.0
234.0 163.0 187.0 -1.0 0.0 1.332267682489747e-16
235.0 163.0 188.0 -0.4472135901451111 0.0 0.8944271802902222
235.0 164.0 166.0 1.0 -4.440892164675075e-17 -1.332267682489747e-16
235.0 164.0 167.0 0.8574929237365723 -7.61606696673499e-17 -0.5144957304000854
235.0 164.0 167.0 0.16439898312091827 0.0 -0.986393928527832
234.0 164.0 180.0 -0.8320503234863281 0.0 0.5547001957893372
234.0 164.0 181.0 -1.0 0.0 0.0
234.0 164.0 182.0 -1.0 0.0 0.0
234.0 164.0 183.0 -1.0 0.0 0.0
234.0 164.0 184.0 -1.0 0.0 0.0
234.0 164.0 185.0 -1.0 0.0 0.0
234.0 164.0 186.0 -1.0 1.268826370578278e-16 0.0
234.0 164.0 187.0 -1.0 1.332267682489747e-16 8.88178432935015e-17
235.0 164.0 188.0 -0.4472135901451111 6.620091216639901e-17 0.8944271802902222
235.0 165.0 166.0 0.800000011920929 -0.6000000238418579 -1.332267682489747e-16
235.0 165.0 167.0 0.8111070990562439 -0.4866642653942108 -0.3244428336620331
235.0 165.0 167.0 0.13018891215324402 -0.39056673645973206 -0.9113223552703857
234.0 165.0 178.0 -0.8451542258262634 0.16903084516525269 0.5070925354957581
234.0 165.0 179.0 -0.9615239500999451 0.2747211158275604 0.0
234.0 165.0 180.0 -0.9805806875228882 0.1961161345243454 0.0
234.0 165.0 181.0 -1.0 0.0 0.0
234.0 165.0 182.0 -1.0 0.0 0.0
234.0 165.0 183.0 -1.0 0.0 0.0
234.0 165.0 184.0 -1.0 1.268826370578278e-16 0.0
234.0 165.0 185.0 -1.0 2.220446049250313e-16 1.332267682489747e-16
235.0 165.0 186.0 -0.5144957304000854 1.904016774770972e-16 0.8574929237365723
235.0 165.0 186.0 -0.5570859909057617 0.7427813410758972 0.3713906705379486
235.0 165.0 187.0 -0.8320503234863281 0.5547001957893372 1.8475228535626623e-16
235.0 166.0 165.0 0.12309148907661438 -0.4923659563064575 -0.861640453338623
235.0 165.0 166.0 0.4472135901451111 -0.8944271802902222 -6.620091216639901e-17
235.0 165.0 167.0 0.3244428336620331 -0.8111070990562439 -0.4866642653942108
234.0 166.0 178.0 -0.8320503234863281 0.0 0.5547001957893372
234.0 166.0 179.0 -1.0 0.0 0.0
234.0 166.0 180.0 -1.0 0.0 0.0
234.0 166.0 181.0 -1.0 0.0 0.0
234.0 166.0 182.0 -1.0 1.268826370578278e-16 0.0
234.0 166.0 183.0 -1.0 2.220446049250313e-16 1.332267682489747e-16
235.0 166.0 184.0 -0.5144957304000854 1.904016774770972e-16 0.8574929237365723
235.0 166.0 184.0 -0.5570859909057617 0.7427813410758972 0.3713906705379486
235.0 166.0 185.0 -0.8320503234863281 0.5547001957893372 1.8475228535626623e-16
235.0 167.0 165.0 0.3713906705379486 0.0 -0.9284766912460327
234.0 167.0 176.0 -0.8451542258262634 0.16903084516525269 0.5070925354957581
234.0 167.0 177.0 -0.9615239500999451 0.2747211158275604 0.0
234.0 167.0 178.0 -0.9805806875228882 0.1961161345243454 0.0
234.0 167.0 179.0 -1.0 0.0 0.0
234.0 167.0 180.0 -1.0 0.0 0.0
234.0 167.0 181.0 -1.0 8.88178432935015e-17 1.77635686587003e-16
235.0 167.0 182.0 -0.5144957304000854 1.142410011923024e-16 0.8574929237365723
235.0 167.0 182.0 -0.5570859909057617 0.7427813410758972 0.3713906705379486
235.0 167.0 183.0 -0.8320503234863281 0.5547001957893372 1.8475228535626623e-16
235.0 168.0 164.0 1.0 -4.440892164675075e-17 -1.332267682489747e-16
235.0 168.0 165.0 0.8574929237365723 -7.61606696673499e-17 -0.5144957304000854
235.0 168.0 165.0 0.39391928911209106 0.0 -0.9191450476646423
234.0 168.0 176.0 -0.8574929237365723 0.0 0.5144957304000854
234.0 168.0 177.0 -1.0 0.0 0.0
234.0 168.0 178.0 -1.0 0.0 0.0
234.0 168.0 179.0 -1.0 0.0 0.0
234.0 168.0 180.0 -1.0 1.268826370578278e-16 0.0
234.0 168.0 181.0 -1.0 1.332267682489747e-16 8.88178432935015e-17
235.0 168.0 182.0 -0.4472135901451111 6.620091216639901e-17 0.8944271802902222
235.0 169.0 164.0 1.0 0.0 -1.332267682489747e-16
235.0 169.0 165.0 0.8574929237365723 0.0 -0.5144957304000854
235.0 169.0 165.0 0.39391928911209106 0.0 -0.9191450476646423
234.0 169.0 176.0 -0.8320503234863281 0.0 0.5547001957893372
234.0 169.0 177.0 -1.0 0.0 0.0
234.0 169.0 178.0 -1.0 1.268826370578278e-16 0.0
234.0 169.0 179.0 -1.0 2.220446049250313e-16 1.332267682489747e-16
235.0 169.0 180.0 -0.5144957304000854 1.904016774770972e-16 0.8574929237365723
235.0 169.0 180.0 -0.5570859909057617 0.7427813410758972 0.3713906705379486
235.0 169.0 181.0 -0.8320503234863281 0.5547001957893372 1.8475228535626623e-16
235.0 170.0 164.0 0.800000011920929 -0.6000000238418579 -1.332267682489747e-16
235.0 170.0 165.0 0.8111070990562439 -0.4866642653942108 -0.3244428336620331
235.0 170.0 165.0 0.14744195342063904 -0.4423258602619171 -0.8846517205238342
234.0 170.0 174.0 -0.8451542258262634 0.16903084516525269 0.5070925354957581
234.0 170.0 175.0 -0.9615239500999451 0.2747211158275604 0.0
234.0 170.0 176.0 -0.9805806875228882 0.1961161345243454 0.0
234.0 170.0 177.0 -1.0 8.88178432935015e-17 1.77635686587003e-16
235.0 170.0 178.0 -0.5144957304000854 1.142410011923024e-16 0.8574929237365723
235.0 170.0 178.0 -0.5570859909057617 0.7427813410758972 0.3713906705379486
235.0 170.0 179.0 -0.8320503234863281 0.5547001957893372 1.8475228535626623e-16
235.0 171.0 163.0 0.12309148907661438 -0.4923659563064575 -0.861640453338623
235.0 170.0 164.0 0.4472135901451111 -0.8944271802902222 -6.620091216639901e-17
235.0 170.0 165.0 0.3244428336620331 -0.8111070990562439 -0.4866642653942108
234.0 171.0 174.0 -0.8574929237365723 0.0 0.5144957304000854
234.0 171.0 175.0 -1.0 0.0 0.0
234.0 171.0 176.0 -1.0 0.0 0.0
234.0 171.0 177.0 -1.0 0.0 1.332267682489747e-16
235.0 171.0 178.0 -0.4472135901451111 0.0 0.8944271802902222
235.0 172.0 163.0 0.3162277638912201 0.0 -0.9486833214759827
234.0 172.0 174.0 -0.8574929237365723 0.0 0.5144957304000854
234.0 172.0 175.0 -1.0 0.0 0.0
234.0 172.0 176.0 -1.0 1.268826370578278e-16 0.0
234.0 172.0 177.0 -1.0 1.332267682489747e-16 8.88178432935015e-17
235.0 172.0 178.0 -0.4472135901451111 6.620091216639901e-17 0.8944271802902222
235.0 173.0 163.0 0.3162277638912201 0.0 -0.9486833214759827
234.0 173.0 174.0 -0.8574929237365723 0.0 0.5144957304000854
234.0 173.0 175.0 -1.0 8.88178432935015e-17 1.77635686587003e-16
235.0 173.0 176.0 -0.5144957304000854 1.142410011923024e-16 0.8574929237365723
235.0 173.0 176.0 -0.5570859909057617 0.7427813410758972 0.3713906705379486
235.0 173.0 177.0 -0.8320503234863281 0.5547001957893372 1.8475228535626623e-16
235.0 174.0 163.0 0.3162277638912201 0.0 -0.9486833214759827
234.0 174.0 174.0 -0.8320503234863281 0.0 0.5547001957893372
234.0 174.0 175.0 -1.0 0.0 1.332267682489747e-16
235.0 174.0 176.0 -0.4472135901451111 0.0 0.8944271802902222
235.0 175.0 163.0 0.3162277638912201 0.0 -0.9486833214759827
234.0 175.0 172.0 -0.8451542258262634 0.16903084516525269 0.5070925354957581
234.0 175.0 173.0 -0.9615239500999451 0.2747211158275604 0.0
234.0 175.0 174.0 -0.9805806875228882 0.1961161345243454 0.0
234.0 175.0 175.0 -1.0 0.0 1.332267682489747e-16
235.0 175.0 176.0 -0.4472135901451111 0.0 0.8944271802902222
235.0 176.0 163.0 0.3162277638912201 0.0 -0.9486833214759827
234.0 176.0 172.0 -0.8574929237365723 0.0 0.5144957304000854
234.0 176.0 173.0 -1.0 0.0 0.0
234.0 176.0 174.0 -1.0 0.0 0.0
234.0 176.0 175.0 -1.0 0.0 1.332267682489747e-16
235.0 176.0 176.0 -0.4472135901451111 0.0 0.8944271802902222
235.0 177.0 163.0 0.3162277638912201 0.0 -0.9486833214759827
234.0 177.0 172.0 -0.8574929237365723 0.0 0.5144957304000854
234.0 177.0 173.0 -1.0 0.0 0.0
234.0 177.0 174.0 -1.0 0.0 0.0
234.0 177.0 175.0 -1.0 0.0 1.332267682489747e-16
235.0 177.0 176.0 -0.4472135901451111 0.0 0.8944271802902222
235.0 178.0 163.0 0.3162277638912201 0.0 -0.9486833214759827
234.0 178.0 172.0 -0.8574929237365723 0.0 0.5144957304000854
234.0 178.0 173.0 -1.0 0.0 0.0
234.0 178.0 174.0 -1.0 0.0 0.0
234.0 178.0 175.0 -1.0 0.0 1.332267682489747e-16
235.0 178.0 176.0 -0.4472135901451111 0.0 0.8944271802902222
235.0 179.0 163.0 0.3162277638912201 0.0 -0.9486833214759827
234.0 179.0 172.0 -0.8574929237365723 0.0 0.5144957304000854
234.0 179.0 173.0 -1.0 0.0 0.0
234.0 179.0 174.0 -1.0 0.0 0.0
234.0 179.0 175.0 -1.0 0.0 1.332267682489747e-16
235.0 179.0 176.0 -0.4472135901451111 0.0 0.8944271802902222
235.0 180.0 163.0 0.3162277638912201 0.0 -0.9486833214759827
234.0 180.0 172.0 -0.8574929237365723 0.0 0.5144957304000854
234.0 180.0 173.0 -1.0 0.0 0.0
234.0 180.0 174.0 -1.0 0.0 0.0
234.0 180.0 175.0 -1.0 0.0 1.332267682489747e-16
235.0 180.0 176.0 -0.4472135901451111 0.0 0.8944271802902222
235.0 181.0 163.0 0.3162277638912201 0.0 -0.9486833214759827
234.0 181.0 172.0 -0.8574929237365723 0.0 0.5144957304000854
234.0 181.0 173.0 -1.0 0.0 0.0
234.0 181.0 174.0 -1.0 0.0 0.0
234.0 181.0 175.0 -1.0 0.0 1.332267682489747e-16
235.0 181.0 176.0 -0.4472135901451111 0.0 0.8944271802902222
235.0 182.0 163.0 0.3162277638912201 0.0 -0.9486833214759827
234.0 182.0 172.0 -0.8574929237365723 0.0 0.5144957304000854
234.0 182.0 173.0 -1.0 0.0 0.0
234.0 182.0 174.0 -1.0 0.0 0.0
234.0 182.0 175.0 -1.0 0.0 1.332267682489747e-16
235.0 182.0 176.0 -0.4472135901451111 0.0 0.8944271802902222
234.0 183.0 90.0 -1.0 -8.88178432935015e-17 -8.88178432935015e-17
235.0 183.0 89.0 -0.4285714328289032 -0.2857142984867096 -0.8571428656578064
235.0 182.0 90.0 -0.5144957304000854 -0.8574929237365723 -1.142410011923024e-16
235.0 182.0 91.0 -0.4472135901451111 -0.8944271802902222 0.0
234.0 183.0 91.0 -1.0 -1.332267682489747e-16 0.0
235.0 182.0 92.0 -0.4472135901451111 -0.8944271802902222 0.0
234.0 183.0 92.0 -0.8682431578636169 -0.49613893032073975 0.0
235.0 182.0 93.0 -0.4472135901451111 -0.8944271802902222 0.0
234.0 183.0 93.0 -0.8944271802902222 -0.4472135901451111 0.0
235.0 182.0 94.0 -0.4472135901451111 -0.8944271802902222 0.0
234.0 183.0 94.0 -0.8944271802902222 -0.4472135901451111 0.0
235.0 182.0 95.0 -0.4472135901451111 -0.8944271802902222 0.0
234.0 183.0 95.0 -0.8682431578636169 -0.49613893032073975 0.0
235.0 182.0 96.0 -0.4472135901451111 -0.8944271802902222 0.0
234.0 183.0 96.0 -1.0 -1.1102230246251565e-16 0.0
235.0 182.0 97.0 -0.4472135901451111 -0.8944271802902222 0.0
234.0 183.0 97.0 -1.0 -1.332267682489747e-16 0.0
235.0 182.0 98.0 -0.4472135901451111 -0.8944271802902222 0.0
234.0 183.0 98.0 -0.8682431578636169 -0.49613893032073975 0.0
235.0 182.0 99.0 -0.5299989581108093 -0.847998321056366 9.414672608802532e-17
234.0 183.0 99.0 -0.800000011920929 -0.6000000238418579 1.332267682489747e-16
235.0 183.0 100.0 -0.27216553688049316 -0.6804138422012329 0.6804138422012329
235.0 183.0 163.0 0.3162277638912201 0.0 -0.9486833214759827
234.0 183.0 172.0 -0.7427813410758972 -0.5570859909057617 0.3713906705379486
234.0 183.0 173.0 -0.8682431578636169 -0.49613893032073975 0.0
234.0 183.0 174.0 -1.0 0.0 0.0
234.0 183.0 175.0 -1.0 0.0 1.332267682489747e-16
235.0 183.0 176.0 -0.4472135901451111 0.0 0.8944271802902222
234.0 184.0 90.0 -0.7682212591171265 -0.6401844024658203 -1.421494927246903e-16
235.0 184.0 89.0 -0.3244428336620331 -0.4866642653942108 -0.8111070990562439
234.0 184.0 91.0 -0.5298129320144653 -0.662266194820404 -0.5298129320144653
234.0 184.0 96.0 -0.5656854510307312 -0.7071067690849304 0.4242640733718872
234.0 184.0 97.0 -0.5298129320144653 -0.662266194820404 -0.5298129320144653
235.0 183.0 100.0 -0.26726123690605164 -0.8017837405204773 0.5345224738121033
235.0 183.0 101.0 -0.4472135901451111 -0.8944271802902222 0.0
235.0 183.0 102.0 -0.39391928911209106 -0.9191450476646423 0.0
234.0 184.0 102.0 -0.7453559637069702 -0.596284806728363 0.2981424033641815
235.0 183.0 103.0 -0.5299989581108093 -0.847998321056366 9.414672608802532e-17
234.0 184.0 103.0 -0.800000011920929 -0.6000000238418579 1.332267682489747e-16
235.0 184.0 104.0 -0.27216553688049316 -0.6804138422012329 0.6804138422012329
235.0 184.0 163.0 0.3162277638912201 0.0 -0.9486833214759827
234.0 184.0 174.0 -0.7453559637069702 -0.2981424033641815 0.596284806728363
234.0 184.0 175.0 -1.0 0.0 1.332267682489747e-16
235.0 184.0 176.0 -0.4472135901451111 0.0 0.8944271802902222
234.0 185.0 88.0 -1.0 -7.401487051415874e-17 -1.1102230246251565e-16
235.0 185.0 87.0 -0.27216553688049316 -0.6804138422012329 -0.6804138422012329
235.0 184.0 88.0 -0.5144957304000854 -0.8574929237365723 -1.142410011923024e-16
235.0 184.0 89.0 -0.4285714328289032 -0.8571428656578064 -0.2857142984867096
234.0 185.0 89.0 -0.5144957304000854 -0.5144957304000854 -0.6859943270683289
235.0 184.0 104.0 -0.26726123690605164 -0.8017837405204773 0.5345224738121033
235.0 184.0 105.0 -0.4856429398059845 -0.8741572499275208 1.0783439470385059e-16
235.0 185.0 106.0 -0.14002801477909088 -0.7001400589942932 0.7001400589942932
235.0 185.0 163.0 0.3162277638912201 0.0 -0.9486833214759827
234.0 185.0 174.0 -0.8574929237365723 0.0 0.5144957304000854
234.0 185.0 175.0 -1.0 0.0 1.332267682489747e-16
235.0 185.0 176.0 -0.4472135901451111 0.0 0.8944271802902222
234.0 186.0 86.0 -1.0 -7.401487051415874e-17 -1.1102230246251565e-16
235.0 186.0 85.0 -0.27216553688049316 -0.6804138422012329 -0.6804138422012329
235.0 185.0 86.0 -0.5144957304000854 -0.8574929237365723 -1.142410011923024e-16
235.0 185.0 87.0 -0.4285714328289032 -0.8571428656578064 -0.2857142984867096
234.0 186.0 87.0 -1.0 -3.700743525707937e-17 0.0
234.0 186.0 88.0 -0.8320503234863281 -0.5547001957893372 0.0
234.0 186.0 89.0 -0.7427813410758972 -0.3713906705379486 -0.5570859909057617
235.0 185.0 106.0 -0.3244428336620331 -0.8111070990562439 0.4866642653942108
235.0 185.0 107.0 -0.39391928911209106 -0.9191450476646423 8.746765292324345e-17
235.0 186.0 108.0 0.0 -0.7071067690849304 0.7071067690849304
235.0 186.0 163.0 0.3162277638912201 0.0 -0.9486833214759827
234.0 186.0 174.0 -0.8574929237365723 0.0 0.5144957304000854
234.0 186.0 175.0 -1.0 0.0 1.332267682489747e-16
235.0 186.0 176.0 -0.4472135901451111 0.0 0.8944271802902222
234.0 187.0 84.0 -1.0 -8.88178432935015e-17 -8.88178432935015e-17
235.0 187.0 83.0 -0.4285714328289032 -0.2857142984867096 -0.8571428656578064
235.0 186.0 84.0 -0.5144957304000854 -0.8574929237365723 -1.142410011923024e-16
235.0 186.0 85.0 -0.4285714328289032 -0.8571428656578064 -0.2857142984867096
234.0 187.0 85.0 -1.0 -3.172065926445695e-17 0.0
234.0 187.0 86.0 -1.0 -4.440892164675075e-17 0.0
234.0 187.0 87.0 -0.6246950626373291 -0.4685212969779968 -0.6246950626373291
235.0 186.0 108.0 -3.3100456083199505e-17 -0.8944271802902222 0.4472135901451111
234.0 187.0 108.0 -0.8111070990562439 -0.4866642653942108 0.3244428336620331
235.0 186.0 109.0 -8.88178432935015e-17 -1.0 8.88178432935015e-17
234.0 187.0 109.0 -0.7808688282966614 -0.6246950626373291 1.3871016838192343e-16
235.0 187.0 110.0 -0.16903084516525269 -0.5070925354957581 0.8451542258262634
235.0 187.0 163.0 0.3162277638912201 0.0 -0.9486833214759827
234.0 187.0 174.0 -0.8574929237365723 0.0 0.5144957304000854
234.0 187.0 175.0 -1.0 0.0 1.332267682489747e-16
235.0 187.0 176.0 -0.4472135901451111 0.0 0.8944271802902222
234.0 188.0 84.0 -1.0 0.0 -1.77635686587003e-16
235.0 188.0 83.0 -0.3244428336620331 -0.4866642653942108 -0.8111070990562439
234.0 188.0 85.0 -1.0 0.0 0.0
234.0 188.0 86.0 -0.8682431578636169 -0.49613893032073975 0.0
234.0 188.0 87.0 -0.7427813410758972 -0.3713906705379486 -0.5570859909057617
235.0 188.0 110.0 0.10101525485515594 -0.4040610194206238 0.9091373085975647
235.0 188.0 110.0 0.7276068925857544 -0.48507124185562134 0.48507124185562134
235.0 188.0 111.0 0.8574929237365723 -0.5144957304000854 7.61606696673499e-17
235.0 188.0 163.0 0.3162277638912201 1.0532500665805052e-16 -0.9486833214759827
234.0 188.0 174.0 -0.8574929237365723 0.0 0.5144957304000854
234.0 188.0 175.0 -1.0 0.0 1.332267682489747e-16
235.0 188.0 176.0 -0.4472135901451111 0.0 0.8944271802902222
234.0 189.0 82.0 -1.0 -8.88178432935015e-17 -8.88178432935015e-17
235.0 189.0 81.0 -0.4285714328289032 -0.2857142984867096 -0.8571428656578064
235.0 188.0 82.0 -0.5144957304000854 -0.8574929237365723 -1.142410011923024e-16
235.0 188.0 83.0 -0.4285714328289032 -0.8571428656578064 -0.2857142984867096
234.0 189.0 83.0 -1.0 -3.172065926445695e-17 0.0
234.0 189.0 84.0 -1.0 -4.440892164675075e-17 0.0
234.0 189.0 85.0 -0.6246950626373291 -0.4685212969779968 -0.6246950626373291
235.0 188.0 110.0 0.4285714328289032 -0.8571428656578064 0.2857142984867096
235.0 188.0 111.0 0.5144957304000854 -0.8574929237365723 1.142410011923024e-16
235.0 189.0 112.0 0.13018891215324402 -0.39056673645973206 0.9113223552703857
235.0 189.0 164.0 0.4472135901451111 0.8944271802902222 -2.97904108057518e-16
235.0 189.0 164.0 0.9486833214759827 0.3162277638912201 -1.0532500665805052e-16
235.0 189.0 165.0 0.7844645380973816 0.1961161345243454 -0.588348388671875
235.0 189.0 165.0 0.40824830532073975 0.8164966106414795 -0.40824830532073975
235.0 189.0 165.0 0.16439898312091827 1.4601562902864475e-16 -0.986393928527832
234.0 189.0 174.0 -0.8574929237365723 0.0 0.5144957304000854
234.0 189.0 175.0 -1.0 0.0 1.332267682489747e-16
235.0 189.0 176.0 -0.4472135901451111 0.0 0.8944271802902222
234.0 190.0 82.0 -1.0 0.0 -1.6653345369377348e-16
235.0 190.0 81.0 -0.4472135901451111 0.0 -0.8944271802902222
234.0 190.0 83.0 -1.0 0.0 0.0
234.0 190.0 84.0 -0.8682431578636169 -0.49613893032073975 0.0
234.0 190.0 85.0 -0.7427813410758972 -0.3713906705379486 -0.5570859909057617
235.0 190.0 112.0 0.16439898312091827 1.4601562902864475e-16 0.986393928527832
235.0 190.0 164.0 1.0 0.0 -1.332267682489747e-16
235.0 190.0 165.0 0.8574929237365723 0.0 -0.5144957304000854
235.0 190.0 165.0 0.16439898312091827 0.0 -0.986393928527832
234.0 190.0 174.0 -0.8574929237365723 0.0 0.5144957304000854
234.0 190.0 175.0 -1.0 0.0 1.332267682489747e-16
235.0 190.0 176.0 -0.4472135901451111 0.0 0.8944271802902222
234.0 191.0 82.0 -1.0 0.0 -1.77635686587003e-16
235.0 191.0 81.0 -0.3244428336620331 -0.4866642653942108 -0.8111070990562439
234.0 191.0 83.0 -0.6246950626373291 -0.4685212969779968 -0.6246950626373291
235.0 191.0 110.0 0.8427009582519531 0.24077171087265015 0.4815434217453003
235.0 191.0 110.0 0.6396021246910095 0.42640143632888794 0.6396021246910095
235.0 191.0 110.0 0.5144957304000854 1.904016774770972e-16 0.8574929237365723
235.0 191.0 111.0 0.9486833214759827 0.3162277638912201 2.1065001331610104e-16
235.0 191.0 111.0 0.4472135901451111 0.8944271802902222 9.930136494087607e-17
235.0 191.0 164.0 1.0 0.0 -1.332267682489747e-16
235.0 191.0 165.0 0.8574929237365723 0.0 -0.5144957304000854
235.0 191.0 165.0 0.16439898312091827 0.0 -0.986393928527832
234.0 191.0 174.0 -0.8574929237365723 0.0 0.5144957304000854
234.0 191.0 175.0 -1.0 0.0 1.332267682489747e-16
235.0 191.0 176.0 -0.4472135901451111 0.0 0.8944271802902222
234.0 192.0 80.0 -1.0 -8.88178432935015e-17 -8.88178432935015e-17
235.0 192.0 79.0 -0.4285714328289032 -0.2857142984867096 -0.8571428656578064
235.0 191.0 80.0 -0.5144957304000854 -0.8574929237365723 -1.142410011923024e-16
235.0 191.0 81.0 -0.4285714328289032 -0.8571428656578064 -0.2857142984867096
234.0 192.0 81.0 -1.0 -3.172065926445695e-17 0.0
234.0 192.0 82.0 -1.0 -4.440892164675075e-17 0.0
234.0 192.0 83.0 -0.800000011920929 0.0 -0.6000000238418579
235.0 192.0 106.0 0.8703882694244385 0.34815531969070435 0.34815531969070435
235.0 192.0 106.0 0.26726123690605164 0.5345224738121033 0.8017837405204773
235.0 192.0 106.0 0.3162277638912201 1.0532500665805052e-16 0.9486833214759827
235.0 192.0 107.0 0.8574929237365723 0.5144957304000854 0.0
235.0 192.0 107.0 0.4472135901451111 0.8944271802902222 0.0
235.0 192.0 108.0 0.9191450476646423 0.39391928911209106 0.0
235.0 192.0 108.0 0.4472135901451111 0.8944271802902222 0.0
235.0 192.0 109.0 0.9486833214759827 0.3162277638912201 2.808666755982082e-16
235.0 192.0 109.0 0.4472135901451111 0.8944271802902222 9.930136494087607e-17
235.0 192.0 164.0 1.0 0.0 -1.332267682489747e-16
235.0 192.0 165.0 0.8574929237365723 0.0 -0.5144957304000854
235.0 192.0 165.0 0.16439898312091827 0.0 -0.986393928527832
234.0 192.0 174.0 -0.8574929237365723 0.0 0.5144957304000854
234.0 192.0 175.0 -1.0 0.0 1.332267682489747e-16
235.0 192.0 176.0 -0.4472135901451111 0.0 0.8944271802902222
234.0 193.0 80.0 -1.0 0.0 -1.6653345369377348e-16
235.0 193.0 79.0 -0.4472135901451111 0.0 -0.8944271802902222
234.0 193.0 81.0 -1.0 0.0 0.0
234.0 193.0 82.0 -1.0 0.0 0.0
234.0 193.0 83.0 -0.800000011920929 0.0 -0.6000000238418579
235.0 193.0 106.0 0.800000011920929 1.332267682489747e-16 0.6000000238418579
235.0 193.0 106.0 0.5299989581108093 0.0 0.847998321056366
235.0 193.0 107.0 1.0 2.7755575615628914e-16 2.220446049250313e-16
235.0 193.0 164.0 1.0 0.0 -1.332267682489747e-16
235.0 193.0 165.0 0.8574929237365723 0.0 -0.5144957304000854
235.0 193.0 165.0 0.16439898312091827 0.0 -0.986393928527832
234.0 193.0 174.0 -0.8574929237365723 0.0 0.5144957304000854
234.0 193.0 175.0 -1.0 0.0 1.332267682489747e-16
235.0 193.0 176.0 -0.4472135901451111 0.0 0.8944271802902222
