ply
format ascii 1.0
element vertex 855
property float x
property float y
property float z
property float nx
property float ny
property float nz
end_header
123.0 43.0 113.0 0.0 -0.8944271802902222 -0.4472135901451111
123.0 44.0 158.0 0.0 0.0 1.0
123.0 45.0 103.0 0.0 -0.7071067690849304 -0.7071067690849304
123.0 44.0 104.0 0.0 -1.0 -1.1102230246251565e-16
123.0 44.0 105.0 0.0 -1.0 0.0
123.0 44.0 106.0 0.0 -1.0 0.0
123.0 44.0 107.0 0.0 -0.8944271802902222 -0.4472135901451111
123.0 45.0 158.0 0.0 -0.49613893032073975 0.8682431578636169
123.0 46.0 101.0 0.0 -0.7071067690849304 -0.7071067690849304
123.0 45.0 102.0 0.0 -1.0 -1.1102230246251565e-16
123.0 45.0 103.0 0.0 -0.8944271802902222 -0.4472135901451111
123.0 45.0 158.0 -3.3100456083199505e-17 -0.8944271802902222 0.4472135901451111
122.0 46.0 158.0 -0.8111070990562439 -0.4866642653942108 0.3244428336620331
123.0 45.0 159.0 -8.88178432935015e-17 -1.0 8.88178432935015e-17
122.0 46.0 159.0 -0.800000011920929 -0.6000000238418579 1.332267682489747e-16
123.0 46.0 160.0 -0.14744195342063904 -0.4423258602619171 0.8846517205238342
123.0 47.0 99.0 0.0 -0.7071067690849304 -0.7071067690849304
123.0 46.0 100.0 0.0 -1.0 -1.1102230246251565e-16
123.0 46.0 101.0 0.0 -0.8944271802902222 -0.4472135901451111
123.0 47.0 160.0 0.0 0.0 1.0
123.0 48.0 97.0 0.0 -0.7071067690849304 -0.7071067690849304
123.0 47.0 98.0 0.0 -1.0 -1.1102230246251565e-16
123.0 47.0 99.0 0.0 -0.8944271802902222 -0.4472135901451111
123.0 48.0 160.0 0.0 0.0 1.0
123.0 49.0 95.0 0.0 -0.7071067690849304 -0.7071067690849304
123.0 48.0 96.0 0.0 -1.0 -1.1102230246251565e-16
123.0 48.0 97.0 0.0 -0.8944271802902222 -0.4472135901451111
123.0 49.0 160.0 -0.15617376565933228 -0.31234753131866455 0.9370425939559937
123.0 50.0 93.0 0.0 -0.7071067690849304 -0.7071067690849304
123.0 49.0 94.0 0.0 -1.0 -1.1102230246251565e-16
123.0 49.0 95.0 0.0 -0.8944271802902222 -0.4472135901451111
123.0 49.0 160.0 -0.3244428336620331 -0.8111070990562439 0.4866642653942108
123.0 49.0 161.0 -0.39391928911209106 -0.9191450476646423 8.746765292324345e-17
123.0 50.0 162.0 0.0 -0.49613893032073975 0.8682431578636169
123.0 51.0 87.0 0.0 -0.7071067690849304 -0.7071067690849304
123.0 50.0 88.0 0.0 -1.0 -1.1102230246251565e-16
123.0 50.0 89.0 0.0 -1.0 0.0
123.0 50.0 90.0 0.0 -1.0 0.0
123.0 50.0 91.0 0.0 -1.0 0.0
123.0 50.0 92.0 0.0 -1.0 0.0
123.0 50.0 93.0 0.0 -0.8944271802902222 -0.4472135901451111
123.0 51.0 162.0 0.0 0.0 1.0
123.0 52.0 85.0 0.0 -0.7071067690849304 -0.7071067690849304
123.0 51.0 86.0 0.0 -1.0 -1.1102230246251565e-16
123.0 51.0 87.0 0.0 -0.8944271802902222 -0.4472135901451111
123.0 52.0 162.0 0.0 0.0 1.0
123.0 53.0 81.0 0.0 -0.7071067690849304 -0.7071067690849304
123.0 52.0 82.0 0.0 -1.0 -1.1102230246251565e-16
123.0 52.0 83.0 0.0 -1.0 0.0
123.0 52.0 84.0 0.0 -1.0 0.0
123.0 52.0 85.0 0.0 -0.8944271802902222 -0.4472135901451111
123.0 53.0 162.0 0.0 0.0 1.0
123.0 54.0 79.0 0.0 -0.7071067690849304 -0.7071067690849304
123.0 53.0 80.0 0.0 -1.0 -1.1102230246251565e-16
123.0 53.0 81.0 0.0 -0.8944271802902222 -0.4472135901451111
123.0 54.0 162.0 0.0 0.0 1.0
123.0 55.0 75.0 0.11704114824533463 -0.702246904373169 -0.702246904373169
123.0 54.0 76.0 8.88178432935015e-17 -1.0 -8.88178432935015e-17
123.0 54.0 77.0 3.172065926445695e-17 -1.0 0.0
123.0 54.0 78.0 3.700743525707937e-17 -1.0 0.0
123.0 54.0 79.0 0.0 -0.8944271802902222 -0.4472135901451111
123.0 55.0 162.0 0.0 0.0 1.0
123.0 56.0 73.0 0.0 -0.7071067690849304 -0.7071067690849304
123.0 55.0 74.0 0.0 -1.0 -1.1102230246251565e-16
123.0 55.0 75.0 0.0 -0.8682431578636169 -0.49613893032073975
123.0 56.0 162.0 0.0 0.0 1.0
123.0 57.0 71.0 0.0 -0.7071067690849304 -0.7071067690849304
123.0 56.0 72.0 0.0 -1.0 -1.1102230246251565e-16
123.0 56.0 73.0 0.0 -0.8944271802902222 -0.4472135901451111
123.0 57.0 162.0 0.0 0.0 1.0
123.0 58.0 69.0 0.0 -0.5144957304000854 -0.8574929237365723
123.0 57.0 70.0 0.0 -1.0 -1.1102230246251565e-16
123.0 57.0 71.0 0.0 -0.8944271802902222 -0.4472135901451111
123.0 58.0 162.0 0.0 0.0 1.0
123.0 59.0 68.0 0.800000011920929 -0.6000000238418579 -1.332267682489747e-16
123.0 59.0 69.0 0.8111070990562439 -0.4866642653942108 -0.3244428336620331
123.0 59.0 69.0 0.13608276844024658 -0.27216553688049316 -0.9525793194770813
123.0 59.0 162.0 0.0 1.1102230246251565e-16 1.0
123.0 60.0 67.0 0.0 -0.7071067690849304 -0.7071067690849304
123.0 59.0 68.0 0.39391928911209106 -0.9191450476646423 -8.746765292324345e-17
123.0 59.0 69.0 0.3244428336620331 -0.8111070990562439 -0.4866642653942108
123.0 60.0 160.0 0.0 0.7071067690849304 0.7071067690849304
123.0 60.0 160.0 0.0 1.1102230246251565e-16 1.0
123.0 60.0 161.0 0.0 1.0 2.220446049250313e-16
123.0 61.0 65.0 0.0 -0.4472135901451111 -0.8944271802902222
123.0 60.0 66.0 0.0 -1.0 -1.1102230246251565e-16
123.0 60.0 67.0 0.0 -0.8944271802902222 -0.4472135901451111
123.0 61.0 160.0 0.0 0.0 1.0
123.0 62.0 65.0 0.0 -0.4472135901451111 -0.8944271802902222
122.0 62.0 158.0 -0.7844645380973816 0.1961161345243454 0.588348388671875
122.0 62.0 159.0 -0.9284766912460327 0.3713906705379486 8.246529471244126e-17
123.0 62.0 160.0 -0.39391928911209106 5.831177302712557e-17 0.9191450476646423
123.0 63.0 63.0 0.0 -0.4472135901451111 -0.8944271802902222
123.0 62.0 64.0 0.0 -1.0 -1.1102230246251565e-16
123.0 62.0 65.0 0.0 -0.8944271802902222 -0.4472135901451111
123.0 63.0 158.0 -1.332267682489747e-16 0.800000011920929 0.6000000238418579
123.0 63.0 158.0 0.0 1.268826370578278e-16 1.0
123.0 63.0 159.0 -2.220446049250313e-16 1.0 3.3306690738754696e-16
123.0 64.0 63.0 0.0 0.0 -1.0
123.0 64.0 158.0 0.0 0.0 1.0
123.0 65.0 62.0 0.800000011920929 -0.6000000238418579 -1.332267682489747e-16
123.0 65.0 63.0 0.8111070990562439 -0.4866642653942108 -0.3244428336620331
123.0 65.0 63.0 0.13608276844024658 -0.27216553688049316 -0.9525793194770813
122.0 65.0 156.0 -0.7844645380973816 0.1961161345243454 0.588348388671875
122.0 65.0 157.0 -0.9284766912460327 0.3713906705379486 8.246529471244126e-17
123.0 65.0 158.0 -0.3511234521865845 7.796506822068327e-17 0.936329185962677
123.0 66.0 61.0 0.0 -0.49613893032073975 -0.8682431578636169
123.0 65.0 62.0 0.39391928911209106 -0.9191450476646423 -8.746765292324345e-17
123.0 65.0 63.0 0.3244428336620331 -0.8111070990562439 -0.4866642653942108
123.0 66.0 156.0 -0.40824830532073975 0.8164966106414795 0.40824830532073975
123.0 66.0 156.0 -0.24253562092781067 1.0770745225832575e-16 0.9701424837112427
123.0 66.0 157.0 -0.4472135901451111 0.8944271802902222 2.97904108057518e-16
123.0 67.0 61.0 0.0 0.0 -1.0
123.0 67.0 156.0 0.0 0.0 1.0
123.0 68.0 61.0 0.0 -0.4472135901451111 -0.8944271802902222
123.0 68.0 156.0 0.0 0.0 1.0
123.0 69.0 59.0 0.0 -0.4472135901451111 -0.8944271802902222
123.0 68.0 60.0 0.0 -1.0 -1.1102230246251565e-16
123.0 68.0 61.0 0.0 -0.8944271802902222 -0.4472135901451111
122.0 69.0 154.0 -0.7844645380973816 0.1961161345243454 0.588348388671875
122.0 69.0 155.0 -0.9284766912460327 0.3713906705379486 8.246529471244126e-17
123.0 69.0 156.0 -0.39391928911209106 5.831177302712557e-17 0.9191450476646423
123.0 70.0 59.0 0.0 -0.4472135901451111 -0.8944271802902222
123.0 70.0 154.0 -1.332267682489747e-16 0.800000011920929 0.6000000238418579
123.0 70.0 154.0 0.0 1.268826370578278e-16 1.0
123.0 70.0 155.0 -2.220446049250313e-16 1.0 3.3306690738754696e-16
123.0 71.0 57.0 0.0 -0.4472135901451111 -0.8944271802902222
123.0 70.0 58.0 0.0 -1.0 -1.1102230246251565e-16
123.0 70.0 59.0 0.0 -0.8944271802902222 -0.4472135901451111
123.0 71.0 154.0 0.0 1.268826370578278e-16 1.0
123.0 72.0 57.0 0.0 0.0 -1.0
123.0 72.0 152.0 -0.48507124185562134 0.7276068925857544 0.48507124185562134
123.0 72.0 152.0 -0.2747211158275604 9.150051575146408e-17 0.9615239500999451
123.0 72.0 153.0 -0.3162277638912201 0.9486833214759827 2.1065001331610104e-16
123.0 73.0 57.0 0.0 0.0 -1.0
123.0 73.0 152.0 0.0 0.0 1.0
123.0 74.0 56.0 0.800000011920929 -0.6000000238418579 -1.332267682489747e-16
123.0 74.0 57.0 0.8111070990562439 -0.4866642653942108 -0.3244428336620331
123.0 74.0 57.0 0.13608276844024658 -0.27216553688049316 -0.9525793194770813
123.0 74.0 152.0 0.0 0.0 1.0
123.0 75.0 55.0 0.0 -0.49613893032073975 -0.8682431578636169
123.0 74.0 56.0 0.39391928911209106 -0.9191450476646423 -8.746765292324345e-17
123.0 74.0 57.0 0.3244428336620331 -0.8111070990562439 -0.4866642653942108
123.0 75.0 152.0 0.0 1.268826370578278e-16 1.0
123.0 76.0 55.0 0.0 0.0 -1.0
123.0 76.0 150.0 -0.48507124185562134 0.7276068925857544 0.48507124185562134
123.0 76.0 150.0 -0.2747211158275604 9.150051575146408e-17 0.9615239500999451
123.0 76.0 151.0 -0.3162277638912201 0.9486833214759827 2.1065001331610104e-16
123.0 77.0 55.0 0.0 0.0 -1.0
123.0 77.0 150.0 0.0 0.0 1.0
123.0 78.0 55.0 0.0 0.0 -1.0
123.0 78.0 150.0 0.0 1.268826370578278e-16 1.0
123.0 79.0 55.0 0.0 1.268826370578278e-16 -1.0
123.0 79.0 148.0 -0.48507124185562134 0.7276068925857544 0.48507124185562134
123.0 79.0 148.0 -0.2747211158275604 9.150051575146408e-17 0.9615239500999451
123.0 79.0 149.0 -0.3162277638912201 0.9486833214759827 2.1065001331610104e-16
123.0 80.0 56.0 0.3162277638912201 0.9486833214759827 -2.1065001331610104e-16
123.0 80.0 56.0 0.9284766912460327 0.3713906705379486 -8.246529471244126e-17
123.0 80.0 57.0 0.7844645380973816 0.1961161345243454 -0.588348388671875
123.0 80.0 57.0 0.48507124185562134 0.7276068925857544 -0.48507124185562134
123.0 80.0 57.0 0.3162277638912201 1.0532500665805052e-16 -0.9486833214759827
123.0 80.0 148.0 0.0 1.4802974102831747e-16 1.0
123.0 81.0 57.0 0.0 0.0 -1.0
123.0 81.0 146.0 -0.48507124185562134 0.7276068925857544 0.48507124185562134
123.0 81.0 146.0 -0.2747211158275604 9.150051575146408e-17 0.9615239500999451
123.0 81.0 147.0 -0.3162277638912201 0.9486833214759827 2.1065001331610104e-16
123.0 82.0 57.0 0.0 0.0 -1.0
123.0 82.0 146.0 0.0 0.0 1.0
123.0 83.0 57.0 0.0 0.0 -1.0
122.0 83.0 144.0 -0.7844645380973816 0.1961161345243454 0.588348388671875
122.0 83.0 145.0 -0.9284766912460327 0.3713906705379486 8.246529471244126e-17
123.0 83.0 146.0 -0.39391928911209106 5.831177302712557e-17 0.9191450476646423
123.0 84.0 57.0 0.0 0.0 -1.0
123.0 84.0 144.0 -1.332267682489747e-16 0.800000011920929 0.6000000238418579
123.0 84.0 144.0 0.0 1.4802974102831747e-16 1.0
123.0 84.0 145.0 -2.220446049250313e-16 1.0 3.3306690738754696e-16
123.0 85.0 57.0 0.0 0.0 -1.0
122.0 85.0 142.0 -0.7844645380973816 0.1961161345243454 0.588348388671875
122.0 85.0 143.0 -0.9284766912460327 0.3713906705379486 8.246529471244126e-17
123.0 85.0 144.0 -0.39391928911209106 5.831177302712557e-17 0.9191450476646423
123.0 86.0 57.0 0.0 1.268826370578278e-16 -1.0
123.0 86.0 142.0 -1.332267682489747e-16 0.800000011920929 0.6000000238418579
123.0 86.0 142.0 0.0 2.220446049250313e-16 1.0
123.0 86.0 143.0 -2.220446049250313e-16 1.0 3.3306690738754696e-16
123.0 87.0 58.0 -0.5547001957893372 0.8320503234863281 -1.8475228535626623e-16
123.0 87.0 59.0 -0.22941572964191437 0.6882472038269043 -0.6882472038269043
123.0 87.0 59.0 -0.3713906705379486 2.061632400898256e-16 -0.9284766912460327
122.0 87.0 68.0 -0.7844645380973816 0.1961161345243454 0.588348388671875
122.0 87.0 69.0 -0.8574929237365723 0.5144957304000854 7.61606696673499e-17
123.0 87.0 70.0 -0.5144957304000854 1.904016774770972e-16 0.8574929237365723
123.0 87.0 70.0 -0.6859943270683289 0.5144957304000854 0.5144957304000854
123.0 87.0 71.0 -0.1414213627576828 0.9899494647979736 0.0
123.0 87.0 72.0 -0.16439898312091827 0.986393928527832 0.0
123.0 87.0 73.0 0.0 1.0 0.0
123.0 87.0 74.0 0.0 1.0 0.0
123.0 87.0 75.0 -0.1961161345243454 0.9805806875228882 0.0
123.0 87.0 76.0 -0.2747211158275604 0.9615239500999451 0.0
123.0 87.0 77.0 -0.22941572964191437 0.6882472038269043 -0.6882472038269043
123.0 87.0 77.0 -0.3713906705379486 2.061632400898256e-16 -0.9284766912460327
123.0 87.0 140.0 -0.48507124185562134 0.7276068925857544 0.48507124185562134
123.0 87.0 140.0 -0.2747211158275604 9.150051575146408e-17 0.9615239500999451
123.0 87.0 141.0 -0.3162277638912201 0.9486833214759827 2.1065001331610104e-16
123.0 88.0 60.0 0.0 1.0 -2.9605948205663494e-16
123.0 88.0 61.0 0.0 1.0 0.0
123.0 88.0 62.0 0.0 1.0 0.0
123.0 88.0 63.0 0.0 1.0 0.0
123.0 88.0 64.0 0.0 1.0 0.0
123.0 88.0 65.0 0.0 1.0 0.0
123.0 88.0 66.0 0.0 1.0 0.0
123.0 88.0 67.0 0.0 1.0 0.0
123.0 88.0 68.0 -1.268826370578278e-16 1.0 0.0
123.0 88.0 69.0 -2.220446049250313e-16 1.0 4.440892098500626e-16
123.0 88.0 78.0 0.0 1.0 -2.9605948205663494e-16
123.0 88.0 79.0 0.0 1.0 0.0
123.0 88.0 80.0 0.0 1.0 0.0
123.0 88.0 81.0 0.0 1.0 0.0
123.0 88.0 82.0 0.0 1.0 0.0
123.0 88.0 83.0 -0.1961161345243454 0.9805806875228882 0.0
123.0 88.0 84.0 -0.2747211158275604 0.9615239500999451 0.0
123.0 88.0 85.0 -0.22941572964191437 0.6882472038269043 -0.6882472038269043
123.0 88.0 85.0 -0.3713906705379486 2.061632400898256e-16 -0.9284766912460327
123.0 88.0 140.0 0.0 1.332267682489747e-16 1.0
123.0 89.0 86.0 0.0 1.0 -2.9605948205663494e-16
123.0 89.0 87.0 0.0 1.0 0.0
123.0 89.0 88.0 0.0 1.0 0.0
123.0 89.0 89.0 0.0 0.7071067690849304 -0.7071067690849304
123.0 89.0 89.0 0.0 2.220446049250313e-16 -1.0
123.0 89.0 138.0 0.0 0.7071067690849304 0.7071067690849304
123.0 89.0 138.0 0.0 2.220446049250313e-16 1.0
123.0 89.0 139.0 0.0 1.0 2.220446049250313e-16
123.0 90.0 90.0 0.0 1.0 -2.220446049250313e-16
123.0 90.0 91.0 0.0 1.0 0.0
123.0 90.0 92.0 0.0 1.0 0.0
123.0 90.0 93.0 0.0 1.0 0.0
123.0 90.0 94.0 0.0 1.0 0.0
123.0 90.0 95.0 -0.1961161345243454 0.9805806875228882 0.0
123.0 90.0 96.0 -0.2747211158275604 0.9615239500999451 0.0
123.0 90.0 97.0 -0.22941572964191437 0.6882472038269043 -0.6882472038269043
123.0 90.0 97.0 -0.3713906705379486 2.061632400898256e-16 -0.9284766912460327
123.0 90.0 136.0 0.0 0.7071067690849304 0.7071067690849304
123.0 90.0 136.0 0.0 2.220446049250313e-16 1.0
123.0 90.0 137.0 0.0 1.0 2.220446049250313e-16
123.0 91.0 98.0 0.0 1.0 -2.9605948205663494e-16
123.0 91.0 99.0 -0.1961161345243454 0.9805806875228882 0.0
123.0 91.0 100.0 -0.2747211158275604 0.9615239500999451 0.0
123.0 91.0 101.0 -0.22941572964191437 0.6882472038269043 -0.6882472038269043
123.0 91.0 101.0 -0.3713906705379486 2.061632400898256e-16 -0.9284766912460327
123.0 91.0 134.0 0.0 0.7071067690849304 0.7071067690849304
123.0 91.0 134.0 0.0 2.220446049250313e-16 1.0
123.0 91.0 135.0 0.0 1.0 2.220446049250313e-16
123.0 92.0 102.0 0.0 1.0 -2.9605948205663494e-16
123.0 92.0 103.0 0.0 1.0 0.0
123.0 92.0 104.0 0.0 1.0 0.0
123.0 92.0 105.0 0.0 0.7071067690849304 -0.7071067690849304
123.0 92.0 105.0 0.0 2.220446049250313e-16 -1.0
123.0 92.0 132.0 0.0 0.7071067690849304 0.7071067690849304
123.0 92.0 132.0 0.0 2.220446049250313e-16 1.0
123.0 92.0 133.0 0.0 1.0 2.220446049250313e-16
123.0 93.0 106.0 0.0 1.0 -2.220446049250313e-16
123.0 93.0 107.0 0.0 1.0 0.0
123.0 93.0 108.0 0.0 1.0 0.0
123.0 93.0 109.0 0.0 1.0 0.0
123.0 93.0 110.0 0.0 1.0 0.0
123.0 93.0 111.0 -0.5144957304000854 0.5144957304000854 -0.6859943270683289
122.0 93.0 112.0 -0.7071067690849304 0.7071067690849304 -1.5700924318127872e-16
123.0 93.0 111.0 -0.16439898312091827 2.1902345016041203e-16 -0.986393928527832
122.0 93.0 113.0 -0.8703882694244385 0.34815531969070435 -0.34815531969070435
123.0 93.0 130.0 0.0 0.7071067690849304 0.7071067690849304
123.0 93.0 130.0 0.0 2.220446049250313e-16 1.0
123.0 93.0 131.0 0.0 1.0 2.220446049250313e-16
123.0 94.0 112.0 -1.6653345369377348e-16 1.0 -1.1102230246251565e-16
123.0 94.0 113.0 -1.268826370578278e-16 1.0 0.0
123.0 94.0 114.0 0.0 1.0 0.0
123.0 94.0 115.0 0.0 1.0 0.0
123.0 94.0 116.0 0.0 1.0 0.0
123.0 94.0 117.0 0.0 0.7071067690849304 -0.7071067690849304
123.0 94.0 117.0 0.0 2.220446049250313e-16 -1.0
122.0 94.0 126.0 -0.7844645380973816 0.1961161345243454 0.588348388671875
122.0 94.0 127.0 -0.8574929237365723 0.5144957304000854 7.61606696673499e-17
123.0 94.0 128.0 -0.3713906705379486 2.061632400898256e-16 0.9284766912460327
123.0 94.0 128.0 -0.3713906705379486 0.5570859909057617 0.7427813410758972
123.0 94.0 129.0 0.0 1.0 2.220446049250313e-16
123.0 95.0 118.0 0.0 1.0 -2.220446049250313e-16
123.0 95.0 119.0 0.0 1.0 0.0
123.0 95.0 120.0 0.0 1.0 0.0
123.0 95.0 121.0 0.0 1.0 0.0
123.0 95.0 122.0 0.0 1.0 0.0
123.0 95.0 123.0 0.0 1.0 0.0
123.0 95.0 124.0 0.0 1.0 0.0
123.0 95.0 125.0 0.0 1.0 0.0
123.0 95.0 126.0 -1.268826370578278e-16 1.0 0.0
123.0 95.0 127.0 -2.220446049250313e-16 1.0 3.3306690738754696e-16
124.0 39.0 133.0 0.0 -0.7071067690849304 -0.7071067690849304
124.0 38.0 134.0 0.0 -1.0 -1.1102230246251565e-16
124.0 38.0 135.0 0.0 -1.0 0.0
124.0 38.0 136.0 0.0 -1.0 0.0
124.0 38.0 137.0 0.0 -1.0 1.1102230246251565e-16
124.0 39.0 138.0 0.0 -0.7071067690849304 0.7071067690849304
124.0 40.0 125.0 0.0 -0.7071067690849304 -0.7071067690849304
124.0 39.0 126.0 0.0 -1.0 -1.1102230246251565e-16
124.0 39.0 127.0 0.0 -1.0 0.0
124.0 39.0 128.0 0.0 -1.0 0.0
124.0 39.0 129.0 0.0 -1.0 0.0
124.0 39.0 130.0 0.0 -1.0 0.0
124.0 39.0 131.0 0.0 -1.0 0.0
124.0 39.0 132.0 0.0 -1.0 0.0
124.0 39.0 133.0 0.0 -0.8944271802902222 -0.4472135901451111
124.0 39.0 138.0 0.0 -0.8944271802902222 0.4472135901451111
124.0 39.0 139.0 0.0 -1.0 0.0
124.0 39.0 140.0 0.0 -1.0 0.0
124.0 39.0 141.0 0.0 -1.0 0.0
124.0 39.0 142.0 0.0 -1.0 0.0
124.0 39.0 143.0 4.440892164675075e-17 -1.0 0.0
124.0 39.0 144.0 6.34413185289139e-17 -1.0 0.0
124.0 39.0 145.0 1.268826370578278e-16 -1.0 1.268826370578278e-16
124.0 40.0 146.0 0.5144957304000854 -0.6859943270683289 0.5144957304000854
124.0 40.0 146.0 0.27216553688049316 -0.6804138422012329 0.6804138422012329
124.0 40.0 147.0 0.7453559637069702 -0.596284806728363 -0.2981424033641815
124.0 40.0 147.0 0.27216553688049316 -0.6804138422012329 -0.6804138422012329
124.0 39.0 148.0 1.4802974102831747e-16 -1.0 -1.1102230246251565e-16
124.0 39.0 149.0 3.700743525707937e-17 -1.0 1.1102230246251565e-16
124.0 40.0 150.0 0.14002801477909088 -0.7001400589942932 0.7001400589942932
124.0 41.0 123.0 0.0 -0.7071067690849304 -0.7071067690849304
124.0 40.0 124.0 0.0 -1.0 -1.1102230246251565e-16
124.0 40.0 125.0 0.0 -0.8944271802902222 -0.4472135901451111
124.0 40.0 146.0 0.3665083348751068 -0.8551861047744751 0.3665083348751068
124.0 40.0 147.0 0.26726123690605164 -0.8017837405204773 -0.5345224738121033
124.0 40.0 150.0 0.0 -0.8682431578636169 0.49613893032073975
124.0 40.0 151.0 0.0 -1.0 0.0
124.0 40.0 152.0 0.0 -1.0 0.0
124.0 40.0 153.0 0.0 -1.0 1.1102230246251565e-16
124.0 41.0 154.0 0.0 -0.7071067690849304 0.7071067690849304
124.0 42.0 121.0 0.0 -0.7071067690849304 -0.7071067690849304
124.0 41.0 122.0 0.0 -1.0 -1.1102230246251565e-16
124.0 41.0 123.0 0.0 -0.8944271802902222 -0.4472135901451111
124.0 41.0 154.0 0.0 -0.8944271802902222 0.4472135901451111
124.0 41.0 155.0 0.0 -1.0 1.1102230246251565e-16
124.0 42.0 156.0 0.0 -0.7071067690849304 0.7071067690849304
124.0 43.0 113.0 0.0 -0.7071067690849304 -0.7071067690849304
124.0 42.0 114.0 0.0 -1.0 -1.1102230246251565e-16
124.0 42.0 115.0 0.0 -1.0 0.0
124.0 42.0 116.0 0.0 -1.0 0.0
124.0 42.0 117.0 4.440892164675075e-17 -1.0 0.0
124.0 42.0 118.0 6.34413185289139e-17 -1.0 0.0
124.0 42.0 119.0 3.172065926445695e-17 -1.0 0.0
124.0 42.0 120.0 3.700743525707937e-17 -1.0 0.0
124.0 42.0 121.0 0.0 -0.8944271802902222 -0.4472135901451111
124.0 42.0 156.0 0.0 -0.8944271802902222 0.4472135901451111
124.0 42.0 157.0 0.0 -1.0 1.1102230246251565e-16
124.0 43.0 158.0 0.0 -0.4472135901451111 0.8944271802902222
124.0 44.0 107.0 0.0 -0.7071067690849304 -0.7071067690849304
124.0 43.0 108.0 0.0 -1.0 -1.1102230246251565e-16
124.0 43.0 109.0 0.0 -1.0 0.0
124.0 43.0 110.0 0.0 -1.0 0.0
124.0 43.0 111.0 0.0 -1.0 0.0
124.0 43.0 112.0 0.0 -1.0 0.0
124.0 43.0 113.0 0.0 -0.8944271802902222 -0.4472135901451111
124.0 44.0 158.0 0.0 0.0 1.0
124.0 45.0 103.0 0.11704114824533463 -0.702246904373169 -0.702246904373169
124.0 44.0 104.0 8.88178432935015e-17 -1.0 -8.88178432935015e-17
124.0 44.0 105.0 3.172065926445695e-17 -1.0 0.0
124.0 44.0 106.0 3.700743525707937e-17 -1.0 0.0
124.0 44.0 107.0 0.0 -0.8944271802902222 -0.4472135901451111
124.0 45.0 158.0 -0.15617376565933228 -0.31234753131866455 0.9370425939559937
124.0 46.0 101.0 0.0 -0.7071067690849304 -0.7071067690849304
124.0 45.0 102.0 0.0 -1.0 -1.1102230246251565e-16
124.0 45.0 103.0 0.0 -0.8682431578636169 -0.49613893032073975
124.0 45.0 158.0 -0.3244428336620331 -0.8111070990562439 0.4866642653942108
124.0 45.0 159.0 -0.39391928911209106 -0.9191450476646423 8.746765292324345e-17
124.0 46.0 160.0 0.0 -0.49613893032073975 0.8682431578636169
124.0 47.0 99.0 0.0 -0.7071067690849304 -0.7071067690849304
124.0 46.0 100.0 0.0 -1.0 -1.1102230246251565e-16
124.0 46.0 101.0 0.0 -0.8944271802902222 -0.4472135901451111
124.0 47.0 160.0 0.0 0.0 1.0
124.0 48.0 97.0 0.0 -0.7071067690849304 -0.7071067690849304
124.0 47.0 98.0 0.0 -1.0 -1.1102230246251565e-16
124.0 47.0 99.0 0.0 -0.8944271802902222 -0.4472135901451111
124.0 48.0 160.0 -0.13018891215324402 -0.39056673645973206 0.9113223552703857
124.0 49.0 95.0 0.0 -0.7071067690849304 -0.7071067690849304
124.0 48.0 96.0 0.0 -1.0 -1.1102230246251565e-16
124.0 48.0 97.0 0.0 -0.8944271802902222 -0.4472135901451111
124.0 48.0 160.0 -0.3244428336620331 -0.8111070990562439 0.4866642653942108
123.0 49.0 160.0 -0.8111070990562439 -0.4866642653942108 0.3244428336620331
124.0 48.0 161.0 -0.4472135901451111 -0.8944271802902222 6.620091216639901e-17
123.0 49.0 161.0 -0.800000011920929 -0.6000000238418579 1.332267682489747e-16
124.0 49.0 162.0 -0.12309148907661438 -0.4923659563064575 0.861640453338623
124.0 50.0 93.0 0.0 -0.7071067690849304 -0.7071067690849304
124.0 49.0 94.0 0.0 -1.0 -1.1102230246251565e-16
124.0 49.0 95.0 0.0 -0.8944271802902222 -0.4472135901451111
124.0 50.0 162.0 0.0 0.0 1.0
124.0 51.0 87.0 0.11704114824533463 -0.702246904373169 -0.702246904373169
124.0 50.0 88.0 8.88178432935015e-17 -1.0 -8.88178432935015e-17
124.0 50.0 89.0 3.172065926445695e-17 -1.0 0.0
124.0 50.0 90.0 3.700743525707937e-17 -1.0 0.0
124.0 50.0 91.0 0.0 -1.0 0.0
124.0 50.0 92.0 0.0 -1.0 0.0
124.0 50.0 93.0 0.0 -0.8944271802902222 -0.4472135901451111
124.0 51.0 162.0 0.0 0.0 1.0
124.0 52.0 85.0 0.0 -0.7071067690849304 -0.7071067690849304
124.0 51.0 86.0 0.0 -1.0 -1.1102230246251565e-16
124.0 51.0 87.0 0.0 -0.8682431578636169 -0.49613893032073975
124.0 52.0 162.0 0.0 0.0 1.0
124.0 53.0 81.0 0.0 -0.7071067690849304 -0.7071067690849304
124.0 52.0 82.0 0.0 -1.0 -1.1102230246251565e-16
124.0 52.0 83.0 0.0 -1.0 0.0
124.0 52.0 84.0 0.0 -1.0 0.0
124.0 52.0 85.0 0.0 -0.8944271802902222 -0.4472135901451111
124.0 53.0 162.0 -0.1414213627576828 0.0 0.9899494647979736
124.0 54.0 79.0 0.0 -0.7071067690849304 -0.7071067690849304
124.0 53.0 80.0 0.0 -1.0 -1.1102230246251565e-16
124.0 53.0 81.0 0.0 -0.8944271802902222 -0.4472135901451111
124.0 54.0 162.0 -0.16439898312091827 0.0 0.986393928527832
124.0 55.0 76.0 0.800000011920929 -0.6000000238418579 -1.332267682489747e-16
124.0 55.0 77.0 0.7453559637069702 -0.596284806728363 -0.2981424033641815
124.0 55.0 77.0 0.14002801477909088 -0.7001400589942932 -0.7001400589942932
124.0 54.0 78.0 6.34413185289139e-17 -1.0 -1.268826370578278e-16
124.0 54.0 79.0 0.0 -0.8944271802902222 -0.4472135901451111
124.0 55.0 162.0 -0.16439898312091827 0.0 0.986393928527832
124.0 56.0 73.0 0.11704114824533463 -0.702246904373169 -0.702246904373169
124.0 55.0 74.0 8.88178432935015e-17 -1.0 -8.88178432935015e-17
124.0 55.0 75.0 3.172065926445695e-17 -1.0 0.0
124.0 55.0 76.0 0.49613893032073975 -0.8682431578636169 0.0
124.0 55.0 77.0 0.3244428336620331 -0.8111070990562439 -0.4866642653942108
124.0 56.0 162.0 -0.16439898312091827 0.0 0.986393928527832
124.0 57.0 71.0 0.0 -0.7071067690849304 -0.7071067690849304
124.0 56.0 72.0 0.0 -1.0 -1.1102230246251565e-16
124.0 56.0 73.0 0.0 -0.8682431578636169 -0.49613893032073975
124.0 57.0 162.0 -0.2747211158275604 0.0 0.9615239500999451
124.0 58.0 69.0 0.13018891215324402 -0.39056673645973206 -0.9113223552703857
124.0 57.0 70.0 8.88178432935015e-17 -1.0 -8.88178432935015e-17
124.0 57.0 71.0 3.3100456083199505e-17 -0.8944271802902222 -0.4472135901451111
124.0 58.0 162.0 0.0 0.0 1.0
124.0 59.0 69.0 0.0 -0.5144957304000854 -0.8574929237365723
124.0 59.0 162.0 0.0 1.268826370578278e-16 1.0
124.0 60.0 67.0 0.0 -0.7071067690849304 -0.7071067690849304
124.0 59.0 68.0 0.0 -1.0 -1.1102230246251565e-16
124.0 59.0 69.0 0.0 -0.8944271802902222 -0.4472135901451111
124.0 60.0 160.0 -0.48507124185562134 0.7276068925857544 0.48507124185562134
124.0 60.0 160.0 -0.2747211158275604 9.150051575146408e-17 0.9615239500999451
124.0 60.0 161.0 -0.3162277638912201 0.9486833214759827 2.1065001331610104e-16
124.0 61.0 65.0 0.13018891215324402 -0.39056673645973206 -0.9113223552703857
124.0 60.0 66.0 8.88178432935015e-17 -1.0 -8.88178432935015e-17
124.0 60.0 67.0 3.3100456083199505e-17 -0.8944271802902222 -0.4472135901451111
124.0 61.0 160.0 0.0 0.0 1.0
124.0 62.0 65.0 0.0 -0.5144957304000854 -0.8574929237365723
124.0 62.0 160.0 0.0 1.268826370578278e-16 1.0
124.0 63.0 63.0 0.0 -0.4472135901451111 -0.8944271802902222
124.0 62.0 64.0 0.0 -1.0 -1.1102230246251565e-16
124.0 62.0 65.0 0.0 -0.8944271802902222 -0.4472135901451111
124.0 63.0 158.0 -0.48507124185562134 0.7276068925857544 0.48507124185562134
124.0 63.0 158.0 -0.2747211158275604 9.150051575146408e-17 0.9615239500999451
124.0 63.0 159.0 -0.3162277638912201 0.9486833214759827 2.1065001331610104e-16
124.0 64.0 63.0 0.0 0.0 -1.0
124.0 64.0 158.0 0.0 0.0 1.0
124.0 65.0 63.0 0.0 -0.4472135901451111 -0.8944271802902222
124.0 65.0 158.0 0.0 0.0 1.0
124.0 66.0 61.0 0.0 -0.4472135901451111 -0.8944271802902222
124.0 65.0 62.0 0.0 -1.0 -1.1102230246251565e-16
124.0 65.0 63.0 0.0 -0.8944271802902222 -0.4472135901451111
123.0 66.0 156.0 -0.7844645380973816 0.1961161345243454 0.588348388671875
123.0 66.0 157.0 -0.9284766912460327 0.3713906705379486 8.246529471244126e-17
124.0 66.0 158.0 -0.3511234521865845 7.796506822068327e-17 0.936329185962677
124.0 67.0 61.0 0.0 0.0 -1.0
124.0 67.0 156.0 -0.40824830532073975 0.8164966106414795 0.40824830532073975
124.0 67.0 156.0 -0.24253562092781067 1.0770745225832575e-16 0.9701424837112427
124.0 67.0 157.0 -0.4472135901451111 0.8944271802902222 2.97904108057518e-16
124.0 68.0 61.0 0.0 -0.4472135901451111 -0.8944271802902222
124.0 68.0 156.0 0.0 0.0 1.0
124.0 69.0 59.0 0.0 -0.4472135901451111 -0.8944271802902222
124.0 68.0 60.0 0.0 -1.0 -1.1102230246251565e-16
124.0 68.0 61.0 0.0 -0.8944271802902222 -0.4472135901451111
124.0 69.0 156.0 0.0 1.268826370578278e-16 1.0
124.0 70.0 59.0 0.0 -0.4472135901451111 -0.8944271802902222
124.0 70.0 154.0 -0.48507124185562134 0.7276068925857544 0.48507124185562134
124.0 70.0 154.0 -0.2747211158275604 9.150051575146408e-17 0.9615239500999451
124.0 70.0 155.0 -0.3162277638912201 0.9486833214759827 2.1065001331610104e-16
124.0 71.0 57.0 0.0 -0.4472135901451111 -0.8944271802902222
124.0 70.0 58.0 0.0 -1.0 -1.1102230246251565e-16
124.0 70.0 59.0 0.0 -0.8944271802902222 -0.4472135901451111
124.0 71.0 154.0 0.0 0.0 1.0
124.0 72.0 57.0 0.0 0.0 -1.0
123.0 72.0 152.0 -0.7844645380973816 0.1961161345243454 0.588348388671875
123.0 72.0 153.0 -0.9284766912460327 0.3713906705379486 8.246529471244126e-17
124.0 72.0 154.0 -0.3511234521865845 7.796506822068327e-17 0.936329185962677
124.0 73.0 57.0 0.0 0.0 -1.0
124.0 73.0 152.0 -0.40824830532073975 0.8164966106414795 0.40824830532073975
124.0 73.0 152.0 -0.24253562092781067 1.0770745225832575e-16 0.9701424837112427
124.0 73.0 153.0 -0.4472135901451111 0.8944271802902222 2.97904108057518e-16
124.0 74.0 57.0 0.0 -0.4472135901451111 -0.8944271802902222
124.0 74.0 152.0 0.0 0.0 1.0
124.0 75.0 55.0 0.0 -0.4472135901451111 -0.8944271802902222
124.0 74.0 56.0 0.0 -1.0 -1.1102230246251565e-16
124.0 74.0 57.0 0.0 -0.8944271802902222 -0.4472135901451111
124.0 75.0 152.0 0.0 0.0 1.0
124.0 76.0 55.0 0.0 0.0 -1.0
123.0 76.0 150.0 -0.7844645380973816 0.1961161345243454 0.588348388671875
123.0 76.0 151.0 -0.9284766912460327 0.3713906705379486 8.246529471244126e-17
124.0 76.0 152.0 -0.39391928911209106 5.831177302712557e-17 0.9191450476646423
124.0 77.0 55.0 0.0 0.0 -1.0
124.0 77.0 150.0 -1.332267682489747e-16 0.800000011920929 0.6000000238418579
124.0 77.0 150.0 0.0 1.268826370578278e-16 1.0
124.0 77.0 151.0 -2.220446049250313e-16 1.0 3.3306690738754696e-16
124.0 78.0 55.0 0.0 0.0 -1.0
124.0 78.0 150.0 0.0 0.0 1.0
124.0 79.0 55.0 0.4472135901451111 6.620091216639901e-17 -0.8944271802902222
123.0 79.0 148.0 -0.7844645380973816 0.1961161345243454 0.588348388671875
123.0 79.0 149.0 -0.9284766912460327 0.3713906705379486 8.246529471244126e-17
124.0 79.0 150.0 -0.39391928911209106 5.831177302712557e-17 0.9191450476646423
124.0 80.0 56.0 2.220446049250313e-16 1.0 -3.3306690738754696e-16
124.0 80.0 57.0 1.332267682489747e-16 0.800000011920929 -0.6000000238418579
124.0 80.0 57.0 0.0 1.268826370578278e-16 -1.0
124.0 80.0 148.0 -1.332267682489747e-16 0.800000011920929 0.6000000238418579
124.0 80.0 148.0 0.0 1.4802974102831747e-16 1.0
124.0 80.0 149.0 -2.220446049250313e-16 1.0 3.3306690738754696e-16
124.0 81.0 57.0 0.0 0.0 -1.0
123.0 81.0 146.0 -0.7844645380973816 0.1961161345243454 0.588348388671875
123.0 81.0 147.0 -0.9284766912460327 0.3713906705379486 8.246529471244126e-17
124.0 81.0 148.0 -0.39391928911209106 5.831177302712557e-17 0.9191450476646423
124.0 82.0 57.0 0.0 0.0 -1.0
124.0 82.0 146.0 -1.332267682489747e-16 0.800000011920929 0.6000000238418579
124.0 82.0 146.0 0.0 1.268826370578278e-16 1.0
124.0 82.0 147.0 -2.220446049250313e-16 1.0 3.3306690738754696e-16
124.0 83.0 57.0 0.0 0.0 -1.0
124.0 83.0 146.0 0.0 1.1102230246251565e-16 1.0
124.0 84.0 57.0 0.0 0.0 -1.0
124.0 84.0 144.0 0.0 0.7071067690849304 0.7071067690849304
124.0 84.0 144.0 0.0 1.1102230246251565e-16 1.0
124.0 84.0 145.0 0.0 1.0 2.220446049250313e-16
124.0 85.0 57.0 0.0 0.0 -1.0
124.0 85.0 144.0 0.0 1.1102230246251565e-16 1.0
124.0 86.0 57.0 0.0 0.0 -1.0
124.0 86.0 142.0 0.0 0.7071067690849304 0.7071067690849304
124.0 86.0 142.0 0.0 1.332267682489747e-16 1.0
124.0 86.0 143.0 0.0 1.0 2.220446049250313e-16
123.0 87.0 58.0 -0.9486833214759827 0.3162277638912201 -2.1065001331610104e-16
124.0 87.0 57.0 -0.2747211158275604 9.150051575146408e-17 -0.9615239500999451
123.0 87.0 59.0 -0.8703882694244385 0.34815531969070435 -0.34815531969070435
123.0 87.0 70.0 -0.7844645380973816 0.1961161345243454 0.588348388671875
123.0 87.0 71.0 -0.8574929237365723 0.5144957304000854 7.61606696673499e-17
124.0 87.0 72.0 -0.5144957304000854 1.904016774770972e-16 0.8574929237365723
124.0 87.0 72.0 -0.6859943270683289 0.5144957304000854 0.5144957304000854
124.0 87.0 73.0 -0.4472135901451111 0.8944271802902222 0.0
124.0 87.0 74.0 -0.4472135901451111 0.8944271802902222 0.0
124.0 87.0 75.0 -0.6246950626373291 0.4685212969779968 -0.6246950626373291
123.0 87.0 76.0 -0.7071067690849304 0.7071067690849304 -1.5700924318127872e-16
124.0 87.0 75.0 -0.5144957304000854 1.904016774770972e-16 -0.8574929237365723
123.0 87.0 77.0 -0.8703882694244385 0.34815531969070435 -0.34815531969070435
123.0 87.0 140.0 -0.7844645380973816 0.1961161345243454 0.588348388671875
123.0 87.0 141.0 -0.9284766912460327 0.3713906705379486 8.246529471244126e-17
124.0 87.0 142.0 -0.39391928911209106 5.831177302712557e-17 0.9191450476646423
124.0 88.0 58.0 -1.6653345369377348e-16 1.0 -1.1102230246251565e-16
124.0 88.0 59.0 -1.268826370578278e-16 1.0 0.0
124.0 88.0 60.0 0.0 1.0 0.0
124.0 88.0 61.0 0.0 1.0 0.0
124.0 88.0 62.0 0.0 1.0 0.0
124.0 88.0 63.0 0.0 1.0 0.0
124.0 88.0 64.0 0.0 1.0 0.0
124.0 88.0 65.0 0.0 1.0 0.0
124.0 88.0 66.0 0.0 1.0 0.0
124.0 88.0 67.0 0.0 1.0 0.0
124.0 88.0 68.0 0.0 1.0 0.0
124.0 88.0 69.0 0.0 1.0 0.0
124.0 88.0 70.0 -1.268826370578278e-16 1.0 0.0
124.0 88.0 71.0 -2.220446049250313e-16 1.0 4.440892098500626e-16
124.0 88.0 76.0 -1.6653345369377348e-16 1.0 -1.6653345369377348e-16
124.0 88.0 77.0 -1.268826370578278e-16 1.0 0.0
124.0 88.0 78.0 0.0 1.0 0.0
124.0 88.0 79.0 0.0 1.0 0.0
124.0 88.0 80.0 0.0 1.0 0.0
124.0 88.0 81.0 0.0 1.0 0.0
124.0 88.0 82.0 0.0 1.0 0.0
124.0 88.0 83.0 -0.5144957304000854 0.5144957304000854 -0.6859943270683289
123.0 88.0 84.0 -0.7071067690849304 0.7071067690849304 -1.5700924318127872e-16
124.0 88.0 83.0 -0.16439898312091827 2.1902345016041203e-16 -0.986393928527832
123.0 88.0 85.0 -0.8703882694244385 0.34815531969070435 -0.34815531969070435
124.0 88.0 140.0 -1.332267682489747e-16 0.800000011920929 0.6000000238418579
124.0 88.0 140.0 0.0 2.220446049250313e-16 1.0
124.0 88.0 141.0 -2.220446049250313e-16 1.0 3.3306690738754696e-16
124.0 89.0 84.0 -1.6653345369377348e-16 1.0 -1.1102230246251565e-16
124.0 89.0 85.0 -1.268826370578278e-16 1.0 0.0
124.0 89.0 86.0 0.0 1.0 0.0
124.0 89.0 87.0 0.0 1.0 0.0
124.0 89.0 88.0 0.0 1.0 0.0
124.0 89.0 89.0 0.0 0.7071067690849304 -0.7071067690849304
124.0 89.0 89.0 0.0 2.220446049250313e-16 -1.0
124.0 89.0 138.0 0.0 0.7071067690849304 0.7071067690849304
124.0 89.0 138.0 0.0 2.220446049250313e-16 1.0
124.0 89.0 139.0 0.0 1.0 2.220446049250313e-16
124.0 90.0 90.0 0.0 1.0 -2.220446049250313e-16
124.0 90.0 91.0 0.0 1.0 0.0
124.0 90.0 92.0 0.0 1.0 0.0
124.0 90.0 93.0 0.0 1.0 0.0
124.0 90.0 94.0 0.0 1.0 0.0
124.0 90.0 95.0 -0.5144957304000854 0.5144957304000854 -0.6859943270683289
123.0 90.0 96.0 -0.7071067690849304 0.7071067690849304 -1.5700924318127872e-16
124.0 90.0 95.0 -0.16439898312091827 2.1902345016041203e-16 -0.986393928527832
123.0 90.0 97.0 -0.8703882694244385 0.34815531969070435 -0.34815531969070435
124.0 90.0 136.0 -0.48507124185562134 0.7276068925857544 0.48507124185562134
124.0 90.0 136.0 -0.3511234521865845 2.0790684417685879e-16 0.936329185962677
124.0 90.0 137.0 -0.3162277638912201 0.9486833214759827 2.1065001331610104e-16
124.0 91.0 96.0 -1.6653345369377348e-16 1.0 -1.1102230246251565e-16
124.0 91.0 97.0 -1.268826370578278e-16 1.0 0.0
124.0 91.0 98.0 0.0 1.0 0.0
124.0 91.0 99.0 -0.5144957304000854 0.5144957304000854 -0.6859943270683289
123.0 91.0 100.0 -0.7071067690849304 0.7071067690849304 -1.5700924318127872e-16
124.0 91.0 99.0 -0.16439898312091827 2.1902345016041203e-16 -0.986393928527832
123.0 91.0 101.0 -0.8703882694244385 0.34815531969070435 -0.34815531969070435
124.0 91.0 134.0 -0.48507124185562134 0.7276068925857544 0.48507124185562134
124.0 91.0 134.0 -0.3511234521865845 2.0790684417685879e-16 0.936329185962677
124.0 91.0 135.0 -0.3162277638912201 0.9486833214759827 2.1065001331610104e-16
124.0 92.0 100.0 -1.6653345369377348e-16 1.0 -1.1102230246251565e-16
124.0 92.0 101.0 -1.268826370578278e-16 1.0 0.0
124.0 92.0 102.0 0.0 1.0 0.0
124.0 92.0 103.0 0.0 1.0 0.0
124.0 92.0 104.0 0.0 1.0 0.0
124.0 92.0 105.0 0.0 0.7071067690849304 -0.7071067690849304
124.0 92.0 105.0 0.0 2.220446049250313e-16 -1.0
124.0 92.0 132.0 -0.48507124185562134 0.7276068925857544 0.48507124185562134
124.0 92.0 132.0 -0.16439898312091827 2.1902345016041203e-16 0.986393928527832
124.0 92.0 133.0 -0.3162277638912201 0.9486833214759827 2.1065001331610104e-16
124.0 93.0 106.0 0.0 1.0 -2.220446049250313e-16
124.0 93.0 107.0 0.0 1.0 0.0
124.0 93.0 108.0 0.0 1.0 0.0
124.0 93.0 109.0 0.0 1.0 0.0
124.0 93.0 110.0 0.0 1.0 0.0
124.0 93.0 111.0 0.0 0.7071067690849304 -0.7071067690849304
124.0 93.0 111.0 0.0 2.220446049250313e-16 -1.0
124.0 93.0 130.0 0.0 0.7071067690849304 0.7071067690849304
124.0 93.0 130.0 0.0 2.220446049250313e-16 1.0
124.0 93.0 131.0 0.0 1.0 2.9605948205663494e-16
124.0 94.0 112.0 0.0 1.0 -2.220446049250313e-16
124.0 94.0 113.0 0.0 1.0 0.0
124.0 94.0 114.0 0.0 1.0 0.0
124.0 94.0 115.0 0.0 1.0 0.0
124.0 94.0 116.0 0.0 1.0 0.0
124.0 94.0 117.0 0.0 0.7071067690849304 -0.7071067690849304
124.0 94.0 117.0 0.0 2.220446049250313e-16 -1.0
124.0 94.0 128.0 0.0 0.7071067690849304 0.7071067690849304
124.0 94.0 128.0 0.0 2.220446049250313e-16 1.0
124.0 94.0 129.0 0.0 1.0 2.220446049250313e-16
124.0 95.0 118.0 0.0 1.0 -2.220446049250313e-16
124.0 95.0 119.0 0.0 1.0 0.0
124.0 95.0 120.0 0.0 1.0 0.0
124.0 95.0 121.0 0.0 1.0 0.0
124.0 95.0 122.0 0.0 1.0 0.0
124.0 95.0 123.0 0.0 1.0 0.0
124.0 95.0 124.0 0.0 1.0 0.0
124.0 95.0 125.0 0.0 1.0 0.0
124.0 95.0 126.0 0.0 1.0 0.0
124.0 95.0 127.0 0.0 1.0 2.220446049250313e-16
125.0 39.0 133.0 0.0 -0.7071067690849304 -0.7071067690849304
125.0 38.0 134.0 0.0 -1.0 -1.1102230246251565e-16
125.0 38.0 135.0 0.0 -1.0 0.0
125.0 38.0 136.0 0.0 -1.0 0.0
125.0 38.0 137.0 0.0 -1.0 1.1102230246251565e-16
125.0 39.0 138.0 0.0 -0.7071067690849304 0.7071067690849304
125.0 40.0 125.0 0.0 -0.7071067690849304 -0.7071067690849304
125.0 39.0 126.0 0.0 -1.0 -1.1102230246251565e-16
125.0 39.0 127.0 0.0 -1.0 0.0
125.0 39.0 128.0 0.0 -1.0 0.0
125.0 39.0 129.0 0.0 -1.0 0.0
125.0 39.0 130.0 0.0 -1.0 0.0
125.0 39.0 131.0 0.0 -1.0 0.0
125.0 39.0 132.0 0.0 -1.0 0.0
125.0 39.0 133.0 0.0 -0.8944271802902222 -0.4472135901451111
125.0 39.0 138.0 0.0 -0.8944271802902222 0.4472135901451111
125.0 39.0 139.0 0.0 -1.0 0.0
125.0 39.0 140.0 0.0 -1.0 0.0
125.0 39.0 141.0 0.0 -1.0 0.0
125.0 39.0 142.0 0.0 -1.0 0.0
125.0 39.0 143.0 9.51619744846484e-17 -1.0 1.268826370578278e-16
125.0 40.0 144.0 0.5144957304000854 -0.6859943270683289 0.5144957304000854
125.0 40.0 144.0 0.11704114824533463 -0.702246904373169 0.702246904373169
125.0 40.0 145.0 0.8574929237365723 -0.5144957304000854 7.61606696673499e-17
125.0 40.0 148.0 0.800000011920929 -0.6000000238418579 -1.332267682489747e-16
125.0 40.0 149.0 0.8574929237365723 -0.5144957304000854 7.61606696673499e-17
125.0 41.0 123.0 0.0 -0.7071067690849304 -0.7071067690849304
125.0 40.0 124.0 0.0 -1.0 -1.1102230246251565e-16
125.0 40.0 125.0 0.0 -0.8944271802902222 -0.4472135901451111
125.0 40.0 144.0 0.4285714328289032 -0.8571428656578064 0.2857142984867096
125.0 40.0 145.0 0.49613893032073975 -0.8682431578636169 0.0
125.0 40.0 146.0 0.0 -1.0 0.0
125.0 40.0 147.0 0.0 -1.0 0.0
125.0 40.0 148.0 0.49613893032073975 -0.8682431578636169 0.0
125.0 40.0 149.0 0.49613893032073975 -0.8682431578636169 0.0
125.0 40.0 150.0 0.0 -1.0 0.0
125.0 40.0 151.0 0.0 -1.0 0.0
125.0 40.0 152.0 0.0 -1.0 0.0
125.0 40.0 153.0 0.0 -1.0 1.1102230246251565e-16
125.0 41.0 154.0 0.0 -0.7071067690849304 0.7071067690849304
125.0 42.0 121.0 0.0 -0.7071067690849304 -0.7071067690849304
125.0 41.0 122.0 0.0 -1.0 -1.1102230246251565e-16
125.0 41.0 123.0 0.0 -0.8944271802902222 -0.4472135901451111
125.0 41.0 154.0 0.0 -0.8944271802902222 0.4472135901451111
125.0 41.0 155.0 0.0 -1.0 1.1102230246251565e-16
125.0 42.0 156.0 0.0 -0.7071067690849304 0.7071067690849304
125.0 43.0 113.0 0.0 -0.7071067690849304 -0.7071067690849304
125.0 42.0 114.0 0.0 -1.0 -1.1102230246251565e-16
125.0 42.0 115.0 0.0 -1.0 0.0
125.0 42.0 116.0 0.0 -1.0 0.0
125.0 42.0 117.0 9.51619744846484e-17 -1.0 1.268826370578278e-16
125.0 43.0 118.0 0.5144957304000854 -0.6859943270683289 0.5144957304000854
125.0 43.0 118.0 0.11704114824533463 -0.702246904373169 0.702246904373169
125.0 43.0 119.0 0.7453559637069702 -0.596284806728363 -0.2981424033641815
125.0 43.0 119.0 0.14002801477909088 -0.7001400589942932 -0.7001400589942932
125.0 42.0 120.0 6.34413185289139e-17 -1.0 -1.268826370578278e-16
125.0 42.0 121.0 0.0 -0.8944271802902222 -0.4472135901451111
125.0 42.0 156.0 0.0 -0.8944271802902222 0.4472135901451111
125.0 42.0 157.0 0.0 -1.0 1.1102230246251565e-16
125.0 43.0 158.0 0.0 -0.4472135901451111 0.8944271802902222
125.0 44.0 107.0 0.11704114824533463 -0.702246904373169 -0.702246904373169
125.0 43.0 108.0 8.88178432935015e-17 -1.0 -8.88178432935015e-17
125.0 43.0 109.0 3.172065926445695e-17 -1.0 0.0
125.0 43.0 110.0 3.700743525707937e-17 -1.0 0.0
125.0 43.0 111.0 0.0 -1.0 0.0
125.0 43.0 112.0 0.0 -1.0 0.0
125.0 43.0 113.0 0.0 -0.8944271802902222 -0.4472135901451111
125.0 43.0 118.0 0.4285714328289032 -0.8571428656578064 0.2857142984867096
125.0 43.0 119.0 0.3244428336620331 -0.8111070990562439 -0.4866642653942108
125.0 44.0 158.0 0.0 -0.49613893032073975 0.8682431578636169
125.0 45.0 104.0 0.800000011920929 -0.6000000238418579 -1.332267682489747e-16
125.0 45.0 105.0 0.7453559637069702 -0.596284806728363 -0.2981424033641815
125.0 45.0 105.0 0.14002801477909088 -0.7001400589942932 -0.7001400589942932
125.0 44.0 106.0 6.34413185289139e-17 -1.0 -1.268826370578278e-16
125.0 44.0 107.0 0.0 -0.8682431578636169 -0.49613893032073975
125.0 44.0 158.0 -3.3100456083199505e-17 -0.8944271802902222 0.4472135901451111
124.0 45.0 158.0 -0.8111070990562439 -0.4866642653942108 0.3244428336620331
125.0 44.0 159.0 -8.88178432935015e-17 -1.0 8.88178432935015e-17
124.0 45.0 159.0 -0.800000011920929 -0.6000000238418579 1.332267682489747e-16
125.0 45.0 160.0 -0.14744195342063904 -0.4423258602619171 0.8846517205238342
125.0 46.0 101.0 0.0 -0.7071067690849304 -0.7071067690849304
125.0 45.0 102.0 0.0 -1.0 -1.1102230246251565e-16
125.0 45.0 103.0 0.0 -1.0 0.0
125.0 45.0 104.0 0.49613893032073975 -0.8682431578636169 0.0
125.0 45.0 105.0 0.3244428336620331 -0.8111070990562439 -0.4866642653942108
125.0 46.0 160.0 0.0 0.0 1.0
125.0 47.0 99.0 0.0 -0.7071067690849304 -0.7071067690849304
125.0 46.0 100.0 0.0 -1.0 -1.1102230246251565e-16
125.0 46.0 101.0 0.0 -0.8944271802902222 -0.4472135901451111
125.0 47.0 160.0 0.0 -0.49613893032073975 0.8682431578636169
125.0 48.0 97.0 0.0 -0.7071067690849304 -0.7071067690849304
125.0 47.0 98.0 0.0 -1.0 -1.1102230246251565e-16
125.0 47.0 99.0 0.0 -0.8944271802902222 -0.4472135901451111
125.0 47.0 160.0 -3.3100456083199505e-17 -0.8944271802902222 0.4472135901451111
124.0 48.0 160.0 -0.8111070990562439 -0.4866642653942108 0.3244428336620331
125.0 47.0 161.0 -8.88178432935015e-17 -1.0 8.88178432935015e-17
124.0 48.0 161.0 -0.800000011920929 -0.6000000238418579 1.332267682489747e-16
125.0 48.0 162.0 -0.14744195342063904 -0.4423258602619171 0.8846517205238342
125.0 49.0 95.0 0.0 -0.7071067690849304 -0.7071067690849304
125.0 48.0 96.0 0.0 -1.0 -1.1102230246251565e-16
125.0 48.0 97.0 0.0 -0.8944271802902222 -0.4472135901451111
125.0 49.0 162.0 0.0 0.0 1.0
125.0 50.0 93.0 0.0 -0.7071067690849304 -0.7071067690849304
125.0 49.0 94.0 0.0 -1.0 -1.1102230246251565e-16
125.0 49.0 95.0 0.0 -0.8944271802902222 -0.4472135901451111
125.0 50.0 162.0 0.0 0.0 1.0
125.0 51.0 88.0 0.800000011920929 -0.6000000238418579 -1.332267682489747e-16
125.0 51.0 89.0 0.7453559637069702 -0.596284806728363 -0.2981424033641815
125.0 51.0 89.0 0.27216553688049316 -0.6804138422012329 -0.6804138422012329
125.0 50.0 90.0 1.4802974102831747e-16 -1.0 -1.1102230246251565e-16
125.0 50.0 91.0 3.172065926445695e-17 -1.0 0.0
125.0 50.0 92.0 3.700743525707937e-17 -1.0 0.0
125.0 50.0 93.0 0.0 -0.8944271802902222 -0.4472135901451111
125.0 51.0 162.0 0.0 0.0 1.0
125.0 52.0 85.0 0.0 -0.7071067690849304 -0.7071067690849304
125.0 51.0 86.0 0.0 -1.0 -1.1102230246251565e-16
125.0 51.0 87.0 0.0 -1.0 0.0
125.0 51.0 88.0 0.49613893032073975 -0.8682431578636169 0.0
125.0 51.0 89.0 0.26726123690605164 -0.8017837405204773 -0.5345224738121033
125.0 52.0 162.0 0.0 -0.49613893032073975 0.8682431578636169
125.0 53.0 81.0 0.11704114824533463 -0.702246904373169 -0.702246904373169
125.0 52.0 82.0 8.88178432935015e-17 -1.0 -8.88178432935015e-17
125.0 52.0 83.0 3.172065926445695e-17 -1.0 0.0
125.0 52.0 84.0 3.700743525707937e-17 -1.0 0.0
125.0 52.0 85.0 0.0 -0.8944271802902222 -0.4472135901451111
125.0 52.0 162.0 -3.3100456083199505e-17 -0.8944271802902222 0.4472135901451111
124.0 53.0 162.0 -0.8944271802902222 -6.620091216639901e-17 0.4472135901451111
125.0 52.0 163.0 -8.88178432935015e-17 -1.0 8.88178432935015e-17
124.0 53.0 163.0 -1.0 -5.551115123125783e-17 1.6653345369377348e-16
125.0 53.0 164.0 -0.16903084516525269 -0.5070925354957581 0.8451542258262634
125.0 54.0 79.0 0.0 -0.7071067690849304 -0.7071067690849304
125.0 53.0 80.0 0.0 -1.0 -1.1102230246251565e-16
125.0 53.0 81.0 0.0 -0.8682431578636169 -0.49613893032073975
124.0 54.0 162.0 -0.8574929237365723 0.0 0.5144957304000854
124.0 54.0 163.0 -1.0 0.0 1.332267682489747e-16
125.0 54.0 164.0 -0.3162277638912201 0.0 0.9486833214759827
125.0 55.0 77.0 0.0 -0.7071067690849304 -0.7071067690849304
125.0 54.0 78.0 0.0 -1.0 -1.1102230246251565e-16
125.0 54.0 79.0 0.0 -0.8944271802902222 -0.4472135901451111
124.0 55.0 162.0 -0.8574929237365723 0.0 0.5144957304000854
124.0 55.0 163.0 -1.0 0.0 1.332267682489747e-16
125.0 55.0 164.0 -0.3162277638912201 0.0 0.9486833214759827
125.0 56.0 74.0 0.800000011920929 -0.6000000238418579 -1.332267682489747e-16
125.0 56.0 75.0 0.7453559637069702 -0.596284806728363 -0.2981424033641815
125.0 56.0 75.0 0.14002801477909088 -0.7001400589942932 -0.7001400589942932
125.0 55.0 76.0 6.34413185289139e-17 -1.0 -1.268826370578278e-16
125.0 55.0 77.0 0.0 -0.8944271802902222 -0.4472135901451111
124.0 56.0 162.0 -0.8574929237365723 0.0 0.5144957304000854
124.0 56.0 163.0 -1.0 0.0 1.332267682489747e-16
125.0 56.0 164.0 -0.3162277638912201 0.0 0.9486833214759827
125.0 57.0 71.0 0.14744195342063904 -0.4423258602619171 -0.8846517205238342
125.0 56.0 72.0 8.88178432935015e-17 -1.0 -8.88178432935015e-17
125.0 56.0 73.0 3.172065926445695e-17 -1.0 0.0
125.0 56.0 74.0 0.49613893032073975 -0.8682431578636169 0.0
125.0 56.0 75.0 0.3244428336620331 -0.8111070990562439 -0.4866642653942108
124.0 57.0 162.0 -0.800000011920929 1.332267682489747e-16 0.6000000238418579
124.0 57.0 163.0 -1.0 1.332267682489747e-16 8.88178432935015e-17
125.0 57.0 164.0 -0.2747211158275604 9.150051575146408e-17 0.9615239500999451
125.0 58.0 70.0 0.800000011920929 -0.6000000238418579 -1.332267682489747e-16
125.0 58.0 71.0 0.8111070990562439 -0.4866642653942108 -0.3244428336620331
125.0 58.0 71.0 0.15617376565933228 -0.31234753131866455 -0.9370425939559937
125.0 58.0 162.0 -0.40824830532073975 0.8164966106414795 0.40824830532073975
125.0 58.0 162.0 -0.24253562092781067 1.0770745225832575e-16 0.9701424837112427
125.0 58.0 163.0 -0.4472135901451111 0.8944271802902222 2.97904108057518e-16
125.0 59.0 69.0 0.0 -0.7071067690849304 -0.7071067690849304
125.0 58.0 70.0 0.39391928911209106 -0.9191450476646423 -8.746765292324345e-17
125.0 58.0 71.0 0.3244428336620331 -0.8111070990562439 -0.4866642653942108
125.0 59.0 162.0 0.0 0.0 1.0
125.0 60.0 67.0 0.0 -0.5144957304000854 -0.8574929237365723
125.0 59.0 68.0 0.0 -1.0 -1.1102230246251565e-16
125.0 59.0 69.0 0.0 -0.8944271802902222 -0.4472135901451111
124.0 60.0 160.0 -0.7844645380973816 0.1961161345243454 0.588348388671875
124.0 60.0 161.0 -0.9284766912460327 0.3713906705379486 8.246529471244126e-17
125.0 60.0 162.0 -0.39391928911209106 5.831177302712557e-17 0.9191450476646423
125.0 61.0 66.0 0.800000011920929 -0.6000000238418579 -1.332267682489747e-16
125.0 61.0 67.0 0.8111070990562439 -0.4866642653942108 -0.3244428336620331
125.0 61.0 67.0 0.13608276844024658 -0.27216553688049316 -0.9525793194770813
125.0 61.0 160.0 -1.332267682489747e-16 0.800000011920929 0.6000000238418579
125.0 61.0 160.0 0.0 1.268826370578278e-16 1.0
125.0 61.0 161.0 -2.220446049250313e-16 1.0 3.3306690738754696e-16
125.0 62.0 65.0 0.0 -0.7071067690849304 -0.7071067690849304
125.0 61.0 66.0 0.39391928911209106 -0.9191450476646423 -8.746765292324345e-17
125.0 61.0 67.0 0.3244428336620331 -0.8111070990562439 -0.4866642653942108
125.0 62.0 160.0 0.0 0.0 1.0
125.0 63.0 63.0 0.13018891215324402 -0.39056673645973206 -0.9113223552703857
125.0 62.0 64.0 8.88178432935015e-17 -1.0 -8.88178432935015e-17
125.0 62.0 65.0 3.3100456083199505e-17 -0.8944271802902222 -0.4472135901451111
124.0 63.0 158.0 -0.7844645380973816 0.1961161345243454 0.588348388671875
124.0 63.0 159.0 -0.9284766912460327 0.3713906705379486 8.246529471244126e-17
125.0 63.0 160.0 -0.39391928911209106 5.831177302712557e-17 0.9191450476646423
125.0 64.0 63.0 0.0 0.0 -1.0
125.0 64.0 158.0 -1.332267682489747e-16 0.800000011920929 0.6000000238418579
125.0 64.0 158.0 0.0 1.268826370578278e-16 1.0
125.0 64.0 159.0 -2.220446049250313e-16 1.0 3.3306690738754696e-16
125.0 65.0 63.0 0.0 -0.4472135901451111 -0.8944271802902222
125.0 65.0 158.0 0.0 0.0 1.0
125.0 66.0 61.0 0.0 -0.4472135901451111 -0.8944271802902222
125.0 65.0 62.0 0.0 -1.0 -1.1102230246251565e-16
125.0 65.0 63.0 0.0 -0.8944271802902222 -0.4472135901451111
125.0 66.0 158.0 0.0 0.0 1.0
125.0 67.0 61.0 0.0 0.0 -1.0
124.0 67.0 156.0 -0.7844645380973816 0.1961161345243454 0.588348388671875
124.0 67.0 157.0 -0.9284766912460327 0.3713906705379486 8.246529471244126e-17
125.0 67.0 158.0 -0.39391928911209106 5.831177302712557e-17 0.9191450476646423
125.0 68.0 61.0 0.0 -0.49613893032073975 -0.8682431578636169
