ply
format ascii 1.0
element vertex 760
property float x
property float y
property float z
property float nx
property float ny
property float nz
end_header
229.0 185.0 235.0 -0.3162277638912201 0.0 -0.9486833214759827
229.0 185.0 246.0 0.0 0.0 1.0
229.0 186.0 41.0 0.0 -0.4472135901451111 -0.8944271802902222
229.0 185.0 42.0 0.0 -1.0 -1.1102230246251565e-16
229.0 185.0 43.0 0.0 -0.8944271802902222 -0.4472135901451111
229.0 186.0 52.0 -0.40824830532073975 0.8164966106414795 0.40824830532073975
229.0 186.0 52.0 -0.16439898312091827 1.4601562902864475e-16 0.986393928527832
229.0 186.0 53.0 -0.4472135901451111 0.8944271802902222 2.97904108057518e-16
228.0 186.0 98.0 -1.0 1.4802974102831747e-16 -2.220446049250313e-16
229.0 186.0 97.0 -0.4472135901451111 9.930136494087607e-17 -0.8944271802902222
228.0 186.0 99.0 -1.0 1.268826370578278e-16 0.0
228.0 186.0 100.0 -1.0 0.0 0.0
228.0 186.0 101.0 -0.800000011920929 0.0 -0.6000000238418579
229.0 186.0 114.0 0.0 0.0 1.0
229.0 186.0 235.0 -0.3162277638912201 0.0 -0.9486833214759827
229.0 186.0 246.0 0.0 0.0 1.0
229.0 187.0 41.0 0.0 0.0 -1.0
228.0 187.0 50.0 -0.8451542258262634 0.16903084516525269 0.5070925354957581
228.0 187.0 51.0 -0.9284766912460327 0.3713906705379486 1.2369793875993945e-16
229.0 187.0 52.0 -0.49613893032073975 0.0 0.8682431578636169
229.0 187.0 98.0 -0.4472135901451111 0.8944271802902222 -1.9860272988175213e-16
229.0 187.0 99.0 -0.6396021246910095 0.42640143632888794 -0.6396021246910095
228.0 187.0 100.0 -1.0 1.6653345369377348e-16 -2.220446049250313e-16
229.0 187.0 99.0 -0.3713906705379486 8.246529471244126e-17 -0.9284766912460327
228.0 187.0 101.0 -0.800000011920929 0.0 -0.6000000238418579
229.0 187.0 114.0 0.0 0.0 1.0
229.0 187.0 235.0 -0.3162277638912201 0.0 -0.9486833214759827
229.0 187.0 246.0 0.0 0.0 1.0
229.0 188.0 41.0 0.0 0.0 -1.0
228.0 188.0 50.0 -0.8574929237365723 0.0 0.5144957304000854
228.0 188.0 51.0 -1.0 0.0 1.332267682489747e-16
229.0 188.0 52.0 -0.4472135901451111 0.0 0.8944271802902222
228.0 188.0 100.0 -1.0 1.4802974102831747e-16 -2.220446049250313e-16
229.0 188.0 99.0 0.3162277638912201 7.021666889955205e-17 -0.9486833214759827
228.0 188.0 101.0 -0.8574929237365723 1.142410011923024e-16 -0.5144957304000854
229.0 188.0 114.0 0.0 1.1102230246251565e-16 1.0
229.0 188.0 235.0 -0.3162277638912201 0.0 -0.9486833214759827
229.0 188.0 246.0 0.0 0.0 1.0
229.0 189.0 41.0 0.0 -0.4472135901451111 -0.8944271802902222
228.0 189.0 50.0 -0.8574929237365723 0.0 0.5144957304000854
228.0 189.0 51.0 -1.0 0.0 1.332267682489747e-16
229.0 189.0 52.0 -0.49613893032073975 0.0 0.8682431578636169
229.0 189.0 100.0 -7.401487051415874e-17 1.0 -1.4802974102831747e-16
229.0 189.0 101.0 -3.172065926445695e-17 1.0 0.0
229.0 189.0 102.0 1.332267682489747e-16 1.0 0.0
229.0 189.0 103.0 1.1102230246251565e-16 1.0 0.0
229.0 189.0 104.0 1.1102230246251565e-16 1.0 0.0
229.0 189.0 105.0 0.16439898312091827 0.986393928527832 0.0
229.0 189.0 106.0 0.8574929237365723 0.5144957304000854 -7.61606696673499e-17
229.0 189.0 106.0 0.1414213627576828 0.9899494647979736 0.0
229.0 189.0 107.0 0.8944271802902222 0.4472135901451111 0.0
229.0 189.0 107.0 0.39391928911209106 0.9191450476646423 0.0
229.0 189.0 108.0 0.8944271802902222 0.4472135901451111 0.0
229.0 189.0 108.0 0.4472135901451111 0.8944271802902222 0.0
229.0 189.0 109.0 0.7844645380973816 0.1961161345243454 -0.588348388671875
229.0 189.0 109.0 0.6859943270683289 0.5144957304000854 -0.5144957304000854
229.0 189.0 109.0 0.5144957304000854 1.904016774770972e-16 -0.8574929237365723
229.0 189.0 112.0 0.5144957304000854 0.5144957304000854 0.6859943270683289
229.0 189.0 112.0 0.16439898312091827 2.1902345016041203e-16 0.986393928527832
229.0 189.0 113.0 0.0 1.0 2.220446049250313e-16
229.0 189.0 235.0 -0.3162277638912201 0.0 -0.9486833214759827
229.0 189.0 246.0 0.0 1.1102230246251565e-16 1.0
229.0 190.0 39.0 0.0 -0.4472135901451111 -0.8944271802902222
229.0 189.0 40.0 0.0 -1.0 -1.1102230246251565e-16
229.0 189.0 41.0 0.0 -0.8944271802902222 -0.4472135901451111
228.0 190.0 50.0 -0.800000011920929 1.332267682489747e-16 0.6000000238418579
228.0 190.0 51.0 -1.0 1.332267682489747e-16 8.88178432935015e-17
229.0 190.0 52.0 -0.3162277638912201 1.0532500665805052e-16 0.9486833214759827
229.0 190.0 110.0 2.220446049250313e-16 1.0 -4.440892098500626e-16
229.0 190.0 111.0 1.6653345369377348e-16 1.0 1.1102230246251565e-16
229.0 190.0 235.0 -0.3162277638912201 0.0 -0.9486833214759827
229.0 190.0 244.0 0.0 0.7071067690849304 0.7071067690849304
229.0 190.0 244.0 0.0 1.1102230246251565e-16 1.0
229.0 190.0 245.0 0.0 1.0 2.220446049250313e-16
229.0 191.0 39.0 0.0 0.0 -1.0
229.0 191.0 50.0 -0.40824830532073975 0.8164966106414795 0.40824830532073975
229.0 191.0 50.0 -0.1414213627576828 1.2560740248595685e-16 0.9899494647979736
229.0 191.0 51.0 -0.4472135901451111 0.8944271802902222 2.97904108057518e-16
229.0 191.0 235.0 -0.3162277638912201 0.0 -0.9486833214759827
229.0 191.0 244.0 0.0 0.0 1.0
229.0 192.0 39.0 0.0 0.0 -1.0
229.0 192.0 50.0 -0.1961161345243454 0.0 0.9805806875228882
229.0 192.0 235.0 -0.3162277638912201 0.0 -0.9486833214759827
229.0 192.0 244.0 0.0 0.0 1.0
229.0 193.0 39.0 0.0 0.0 -1.0
228.0 193.0 48.0 -0.8451542258262634 0.16903084516525269 0.5070925354957581
228.0 193.0 49.0 -0.9284766912460327 0.3713906705379486 1.2369793875993945e-16
229.0 193.0 50.0 -0.5299989581108093 0.0 0.847998321056366
229.0 193.0 235.0 -0.3162277638912201 0.0 -0.9486833214759827
229.0 193.0 244.0 0.0 0.0 1.0
229.0 194.0 39.0 -0.14744195342063904 -0.4423258602619171 -0.8846517205238342
228.0 194.0 48.0 -0.8574929237365723 0.0 0.5144957304000854
228.0 194.0 49.0 -1.0 0.0 1.332267682489747e-16
229.0 194.0 50.0 -0.3713906705379486 0.0 0.9284766912460327
229.0 194.0 235.0 -0.3162277638912201 0.0 -0.9486833214759827
229.0 194.0 244.0 0.0 0.0 1.0
229.0 195.0 37.0 0.0 -0.49613893032073975 -0.8682431578636169
229.0 194.0 38.0 -0.5144957304000854 -0.8574929237365723 -1.142410011923024e-16
229.0 194.0 39.0 -0.4285714328289032 -0.8571428656578064 -0.2857142984867096
228.0 195.0 48.0 -0.8574929237365723 0.0 0.5144957304000854
228.0 195.0 49.0 -1.0 0.0 1.332267682489747e-16
229.0 195.0 50.0 -0.3162277638912201 0.0 0.9486833214759827
229.0 195.0 235.0 -0.3162277638912201 0.0 -0.9486833214759827
229.0 195.0 244.0 0.0 0.0 1.0
229.0 196.0 37.0 0.0 0.0 -1.0
228.0 196.0 48.0 -0.8574929237365723 0.0 0.5144957304000854
228.0 196.0 49.0 -1.0 0.0 1.332267682489747e-16
229.0 196.0 50.0 -0.3162277638912201 0.0 0.9486833214759827
229.0 196.0 235.0 -0.3162277638912201 0.0 -0.9486833214759827
229.0 196.0 244.0 0.0 0.0 1.0
229.0 197.0 37.0 0.0 0.0 -1.0
228.0 197.0 48.0 -0.8574929237365723 0.0 0.5144957304000854
228.0 197.0 49.0 -1.0 0.0 1.332267682489747e-16
229.0 197.0 50.0 -0.3162277638912201 0.0 0.9486833214759827
229.0 197.0 235.0 -0.3162277638912201 0.0 -0.9486833214759827
229.0 197.0 244.0 0.0 0.0 1.0
229.0 198.0 37.0 0.0 0.0 -1.0
228.0 198.0 48.0 -0.800000011920929 1.332267682489747e-16 0.6000000238418579
228.0 198.0 49.0 -1.0 1.332267682489747e-16 8.88178432935015e-17
229.0 198.0 50.0 -0.2747211158275604 9.150051575146408e-17 0.9615239500999451
229.0 198.0 235.0 -0.3162277638912201 0.0 -0.9486833214759827
229.0 198.0 244.0 0.0 0.0 1.0
229.0 199.0 37.0 0.0 0.0 -1.0
229.0 199.0 48.0 -0.40824830532073975 0.8164966106414795 0.40824830532073975
229.0 199.0 48.0 -0.1414213627576828 1.2560740248595685e-16 0.9899494647979736
229.0 199.0 49.0 -0.4472135901451111 0.8944271802902222 2.97904108057518e-16
229.0 199.0 235.0 -0.1373605579137802 -0.5494422316551208 -0.8241633772850037
229.0 199.0 244.0 0.0 0.0 1.0
229.0 200.0 37.0 0.0 0.0 -1.0
229.0 200.0 48.0 -0.16439898312091827 0.0 0.986393928527832
228.0 200.0 234.0 -1.0 -8.88178432935015e-17 -8.88178432935015e-17
229.0 200.0 233.0 -0.4285714328289032 -0.2857142984867096 -0.8571428656578064
229.0 199.0 234.0 -0.5144957304000854 -0.8574929237365723 -1.142410011923024e-16
229.0 199.0 235.0 -0.4285714328289032 -0.8571428656578064 -0.2857142984867096
228.0 200.0 235.0 -0.7071067690849304 -5.2336415496667056e-17 -0.7071067690849304
229.0 200.0 244.0 0.0 0.0 1.0
229.0 201.0 37.0 0.0 0.0 -1.0
229.0 201.0 48.0 -0.16439898312091827 0.0 0.986393928527832
228.0 201.0 234.0 -1.0 0.0 -1.6653345369377348e-16
229.0 201.0 233.0 -0.4472135901451111 0.0 -0.8944271802902222
228.0 201.0 235.0 -0.800000011920929 0.0 -0.6000000238418579
229.0 201.0 244.0 0.0 0.0 1.0
229.0 202.0 37.0 0.0 0.0 -1.0
229.0 202.0 48.0 -0.3162277638912201 0.0 0.9486833214759827
228.0 202.0 234.0 -1.0 0.0 -1.6653345369377348e-16
229.0 202.0 233.0 -0.4472135901451111 0.0 -0.8944271802902222
228.0 202.0 235.0 -0.800000011920929 0.0 -0.6000000238418579
229.0 202.0 244.0 0.0 0.0 1.0
229.0 203.0 37.0 0.0 0.0 -1.0
228.0 203.0 46.0 -0.8451542258262634 0.16903084516525269 0.5070925354957581
228.0 203.0 47.0 -0.9284766912460327 0.3713906705379486 1.2369793875993945e-16
229.0 203.0 48.0 -0.4472135901451111 0.0 0.8944271802902222
228.0 203.0 234.0 -1.0 0.0 -1.77635686587003e-16
229.0 203.0 233.0 -0.3244428336620331 -0.4866642653942108 -0.8111070990562439
228.0 203.0 235.0 -0.800000011920929 0.0 -0.6000000238418579
229.0 203.0 244.0 0.0 0.0 1.0
229.0 204.0 37.0 0.0 0.0 -1.0
228.0 204.0 46.0 -0.8574929237365723 0.0 0.5144957304000854
228.0 204.0 47.0 -1.0 0.0 1.332267682489747e-16
229.0 204.0 48.0 -0.3162277638912201 0.0 0.9486833214759827
228.0 204.0 232.0 -1.0 -8.88178432935015e-17 -8.88178432935015e-17
229.0 204.0 231.0 -0.3665083348751068 -0.3665083348751068 -0.8551861047744751
229.0 203.0 232.0 -0.4472135901451111 -0.8944271802902222 -9.930136494087607e-17
229.0 203.0 233.0 -0.4285714328289032 -0.8571428656578064 -0.2857142984867096
228.0 204.0 233.0 -1.0 -3.700743525707937e-17 0.0
228.0 204.0 234.0 -0.8320503234863281 -0.5547001957893372 0.0
228.0 204.0 235.0 -0.7427813410758972 -0.3713906705379486 -0.5570859909057617
229.0 204.0 244.0 0.0 0.0 1.0
229.0 205.0 37.0 0.0 0.0 -1.0
228.0 205.0 46.0 -0.8574929237365723 0.0 0.5144957304000854
228.0 205.0 47.0 -1.0 0.0 1.332267682489747e-16
229.0 205.0 48.0 -0.3162277638912201 0.0 0.9486833214759827
228.0 205.0 232.0 -1.0 0.0 -1.6653345369377348e-16
229.0 205.0 231.0 -0.4472135901451111 0.0 -0.8944271802902222
228.0 205.0 233.0 -0.6246950626373291 -0.4685212969779968 -0.6246950626373291
229.0 205.0 244.0 0.0 0.0 1.0
229.0 206.0 37.0 0.0 0.0 -1.0
228.0 206.0 46.0 -0.8574929237365723 0.0 0.5144957304000854
228.0 206.0 47.0 -1.0 0.0 1.332267682489747e-16
229.0 206.0 48.0 -0.3162277638912201 0.0 0.9486833214759827
228.0 206.0 232.0 -1.0 0.0 -1.6653345369377348e-16
229.0 206.0 231.0 -0.4472135901451111 0.0 -0.8944271802902222
228.0 206.0 233.0 -0.800000011920929 0.0 -0.6000000238418579
229.0 206.0 244.0 0.0 0.0 1.0
229.0 207.0 37.0 0.0 0.0 -1.0
228.0 207.0 46.0 -0.8574929237365723 0.0 0.5144957304000854
228.0 207.0 47.0 -1.0 0.0 1.332267682489747e-16
229.0 207.0 48.0 -0.3162277638912201 0.0 0.9486833214759827
228.0 207.0 232.0 -1.0 0.0 -1.77635686587003e-16
229.0 207.0 231.0 -0.3244428336620331 -0.4866642653942108 -0.8111070990562439
228.0 207.0 233.0 -0.800000011920929 0.0 -0.6000000238418579
229.0 207.0 244.0 0.0 0.0 1.0
229.0 208.0 37.0 0.0 0.0 -1.0
228.0 208.0 46.0 -0.800000011920929 1.332267682489747e-16 0.6000000238418579
228.0 208.0 47.0 -1.0 1.332267682489747e-16 8.88178432935015e-17
229.0 208.0 48.0 -0.2747211158275604 9.150051575146408e-17 0.9615239500999451
228.0 208.0 230.0 -1.0 -8.88178432935015e-17 -8.88178432935015e-17
229.0 208.0 229.0 -0.4285714328289032 -0.2857142984867096 -0.8571428656578064
229.0 207.0 230.0 -0.5144957304000854 -0.8574929237365723 -1.142410011923024e-16
229.0 207.0 231.0 -0.4285714328289032 -0.8571428656578064 -0.2857142984867096
228.0 208.0 231.0 -1.0 -3.700743525707937e-17 0.0
228.0 208.0 232.0 -0.8320503234863281 -0.5547001957893372 0.0
228.0 208.0 233.0 -0.7427813410758972 -0.3713906705379486 -0.5570859909057617
229.0 208.0 244.0 0.0 0.0 1.0
229.0 209.0 37.0 0.0 0.0 -1.0
229.0 209.0 46.0 -0.40824830532073975 0.8164966106414795 0.40824830532073975
229.0 209.0 46.0 -0.1414213627576828 1.2560740248595685e-16 0.9899494647979736
229.0 209.0 47.0 -0.4472135901451111 0.8944271802902222 2.97904108057518e-16
228.0 209.0 230.0 -1.0 0.0 -1.6653345369377348e-16
229.0 209.0 229.0 -0.4472135901451111 0.0 -0.8944271802902222
228.0 209.0 231.0 -0.6246950626373291 -0.4685212969779968 -0.6246950626373291
229.0 209.0 244.0 0.0 0.0 1.0
229.0 210.0 37.0 0.0 0.0 -1.0
229.0 210.0 46.0 -0.16439898312091827 0.0 0.986393928527832
228.0 210.0 230.0 -1.0 0.0 -1.77635686587003e-16
229.0 210.0 229.0 -0.3244428336620331 -0.4866642653942108 -0.8111070990562439
228.0 210.0 231.0 -0.800000011920929 0.0 -0.6000000238418579
229.0 210.0 244.0 0.0 0.0 1.0
229.0 211.0 37.0 0.0 0.0 -1.0
229.0 211.0 46.0 -0.16439898312091827 0.0 0.986393928527832
228.0 211.0 228.0 -1.0 -8.88178432935015e-17 -8.88178432935015e-17
229.0 211.0 227.0 -0.3665083348751068 -0.3665083348751068 -0.8551861047744751
229.0 210.0 228.0 -0.4472135901451111 -0.8944271802902222 -9.930136494087607e-17
229.0 210.0 229.0 -0.4285714328289032 -0.8571428656578064 -0.2857142984867096
228.0 211.0 229.0 -1.0 -3.700743525707937e-17 0.0
228.0 211.0 230.0 -0.8320503234863281 -0.5547001957893372 0.0
228.0 211.0 231.0 -0.7427813410758972 -0.3713906705379486 -0.5570859909057617
229.0 211.0 244.0 0.0 0.0 1.0
229.0 212.0 37.0 0.0 0.0 -1.0
229.0 212.0 46.0 -0.16439898312091827 0.0 0.986393928527832
228.0 212.0 228.0 -1.0 0.0 -1.6653345369377348e-16
229.0 212.0 227.0 -0.4472135901451111 0.0 -0.8944271802902222
228.0 212.0 229.0 -0.6246950626373291 -0.4685212969779968 -0.6246950626373291
229.0 212.0 244.0 0.0 0.0 1.0
229.0 213.0 37.0 0.0 0.0 -1.0
229.0 213.0 46.0 -0.16439898312091827 0.0 0.986393928527832
228.0 213.0 228.0 -1.0 0.0 -1.77635686587003e-16
229.0 213.0 227.0 -0.3244428336620331 -0.4866642653942108 -0.8111070990562439
228.0 213.0 229.0 -0.800000011920929 0.0 -0.6000000238418579
229.0 213.0 244.0 0.0 0.0 1.0
229.0 214.0 37.0 0.0 0.0 -1.0
229.0 214.0 46.0 -0.16439898312091827 0.0 0.986393928527832
228.0 214.0 226.0 -1.0 -8.88178432935015e-17 -8.88178432935015e-17
229.0 214.0 225.0 -0.4285714328289032 -0.2857142984867096 -0.8571428656578064
229.0 213.0 226.0 -0.5144957304000854 -0.8574929237365723 -1.142410011923024e-16
229.0 213.0 227.0 -0.4285714328289032 -0.8571428656578064 -0.2857142984867096
228.0 214.0 227.0 -1.0 -3.700743525707937e-17 0.0
228.0 214.0 228.0 -0.8320503234863281 -0.5547001957893372 0.0
228.0 214.0 229.0 -0.7427813410758972 -0.3713906705379486 -0.5570859909057617
229.0 214.0 244.0 0.0 0.0 1.0
229.0 215.0 37.0 0.0 0.0 -1.0
229.0 215.0 46.0 -0.16439898312091827 0.0 0.986393928527832
228.0 215.0 170.0 -0.8574929237365723 -0.5144957304000854 -7.61606696673499e-17
229.0 215.0 169.0 3.5108334449776023e-17 -0.3162277638912201 -0.9486833214759827
229.0 214.0 170.0 4.440892164675075e-17 -1.0 -8.88178432935015e-17
229.0 214.0 171.0 -1.1102230246251565e-16 -1.0 1.1102230246251565e-16
228.0 215.0 171.0 -0.800000011920929 -0.6000000238418579 1.332267682489747e-16
229.0 215.0 172.0 0.0 -0.7071067690849304 0.7071067690849304
228.0 215.0 226.0 -1.0 0.0 -1.6653345369377348e-16
229.0 215.0 225.0 -0.4472135901451111 0.0 -0.8944271802902222
228.0 215.0 227.0 -0.6246950626373291 -0.4685212969779968 -0.6246950626373291
229.0 215.0 244.0 0.0 0.0 1.0
229.0 216.0 37.0 0.0 0.0 -1.0
229.0 216.0 46.0 -0.16439898312091827 0.0 0.986393928527832
229.0 216.0 169.0 0.2747211158275604 0.0 -0.9615239500999451
229.0 215.0 172.0 -0.26726123690605164 -0.8017837405204773 0.5345224738121033
229.0 215.0 173.0 -0.4856429398059845 -0.8741572499275208 1.0783439470385059e-16
229.0 216.0 174.0 -0.14002801477909088 -0.7001400589942932 0.7001400589942932
228.0 216.0 226.0 -1.0 0.0 -1.77635686587003e-16
229.0 216.0 225.0 -0.3244428336620331 -0.4866642653942108 -0.8111070990562439
228.0 216.0 227.0 -0.800000011920929 0.0 -0.6000000238418579
229.0 216.0 244.0 0.0 0.0 1.0
229.0 217.0 37.0 0.0 0.0 -1.0
229.0 217.0 46.0 -0.16439898312091827 0.0 0.986393928527832
229.0 217.0 166.0 0.8320503234863281 -0.5547001957893372 -1.2316818582588088e-16
229.0 217.0 167.0 0.8320503234863281 -0.5547001957893372 9.237614267813311e-17
229.0 217.0 169.0 0.0 0.0 -1.0
229.0 216.0 174.0 -0.3244428336620331 -0.8111070990562439 0.4866642653942108
229.0 216.0 175.0 -0.49613893032073975 -0.8682431578636169 0.0
229.0 216.0 176.0 -3.172065926445695e-17 -1.0 0.0
228.0 217.0 176.0 -0.7453559637069702 -0.596284806728363 0.2981424033641815
229.0 216.0 177.0 -1.332267682489747e-16 -1.0 0.0
228.0 217.0 177.0 -0.8682431578636169 -0.49613893032073975 0.0
229.0 216.0 178.0 -0.49613893032073975 -0.8682431578636169 0.0
228.0 217.0 178.0 -1.0 -1.1102230246251565e-16 0.0
229.0 216.0 179.0 -0.4472135901451111 -0.8944271802902222 6.620091216639901e-17
228.0 217.0 179.0 -1.0 -5.551115123125783e-17 1.6653345369377348e-16
229.0 217.0 180.0 -0.3244428336620331 -0.4866642653942108 0.8111070990562439
228.0 217.0 224.0 -1.0 -7.401487051415874e-17 -1.1102230246251565e-16
229.0 217.0 223.0 -0.27216553688049316 -0.6804138422012329 -0.6804138422012329
229.0 216.0 224.0 -0.5144957304000854 -0.8574929237365723 -1.142410011923024e-16
229.0 216.0 225.0 -0.4285714328289032 -0.8571428656578064 -0.2857142984867096
228.0 217.0 225.0 -1.0 -3.700743525707937e-17 0.0
228.0 217.0 226.0 -0.8320503234863281 -0.5547001957893372 0.0
228.0 217.0 227.0 -0.7427813410758972 -0.3713906705379486 -0.5570859909057617
229.0 217.0 244.0 0.0 0.0 1.0
229.0 218.0 37.0 0.0 0.0 -1.0
229.0 218.0 46.0 -0.16439898312091827 0.0 0.986393928527832
229.0 218.0 164.0 1.0 1.1102230246251565e-16 -1.1102230246251565e-16
229.0 218.0 165.0 0.8451542258262634 -0.16903084516525269 -0.5070925354957581
229.0 218.0 165.0 0.24077171087265015 -0.4815434217453003 -0.8427009582519531
229.0 217.0 166.0 0.4472135901451111 -0.8944271802902222 -9.930136494087607e-17
229.0 217.0 167.0 0.5547001957893372 -0.8320503234863281 1.2316818582588088e-16
229.0 218.0 168.0 0.5144957304000854 -0.6859943270683289 0.5144957304000854
229.0 218.0 168.0 0.10050377994775772 -0.703526496887207 0.703526496887207
229.0 218.0 169.0 0.8111070990562439 -0.4866642653942108 -0.3244428336620331
229.0 218.0 169.0 0.11624763906002045 -0.34874290227890015 -0.9299811124801636
228.0 218.0 178.0 -0.5656854510307312 -0.7071067690849304 0.4242640733718872
228.0 218.0 179.0 -0.8944271802902222 -0.4472135901451111 9.930136494087607e-17
229.0 218.0 180.0 -0.3665083348751068 -0.3665083348751068 0.8551861047744751
228.0 218.0 222.0 -1.0 -8.88178432935015e-17 -8.88178432935015e-17
229.0 218.0 221.0 -0.4285714328289032 -0.2857142984867096 -0.8571428656578064
229.0 217.0 222.0 -0.5144957304000854 -0.8574929237365723 -1.142410011923024e-16
229.0 217.0 223.0 -0.4285714328289032 -0.8571428656578064 -0.2857142984867096
228.0 218.0 223.0 -1.0 -3.700743525707937e-17 0.0
228.0 218.0 224.0 -0.8320503234863281 -0.5547001957893372 0.0
228.0 218.0 225.0 -0.5298129320144653 -0.662266194820404 -0.5298129320144653
229.0 218.0 244.0 0.0 0.0 1.0
229.0 219.0 37.0 0.0 0.0 -1.0
229.0 219.0 46.0 -0.14744195342063904 -0.4423258602619171 0.8846517205238342
229.0 219.0 165.0 0.0 0.0 -1.0
229.0 218.0 168.0 0.4285714328289032 -0.8571428656578064 0.2857142984867096
229.0 218.0 169.0 0.3244428336620331 -0.8111070990562439 -0.4866642653942108
229.0 218.0 180.0 -0.26726123690605164 -0.8017837405204773 0.5345224738121033
228.0 219.0 180.0 -0.8846517205238342 -0.14744195342063904 0.4423258602619171
229.0 218.0 181.0 -0.4472135901451111 -0.8944271802902222 6.620091216639901e-17
228.0 219.0 181.0 -1.0 -4.440892164675075e-17 1.77635686587003e-16
229.0 219.0 182.0 -0.27216553688049316 -0.6804138422012329 0.6804138422012329
228.0 219.0 222.0 -1.0 0.0 -1.77635686587003e-16
229.0 219.0 221.0 -0.3244428336620331 -0.4866642653942108 -0.8111070990562439
228.0 219.0 223.0 -0.6246950626373291 -0.4685212969779968 -0.6246950626373291
229.0 219.0 244.0 0.0 0.0 1.0
229.0 220.0 37.0 0.0 0.0 -1.0
229.0 219.0 46.0 -0.3244428336620331 -0.8111070990562439 0.4866642653942108
228.0 220.0 46.0 -0.8944271802902222 -6.620091216639901e-17 0.4472135901451111
229.0 219.0 47.0 -0.4472135901451111 -0.8944271802902222 6.620091216639901e-17
228.0 220.0 47.0 -1.0 -5.551115123125783e-17 1.6653345369377348e-16
229.0 220.0 48.0 -0.1373605579137802 -0.5494422316551208 0.8241633772850037
229.0 220.0 165.0 0.0 0.0 -1.0
228.0 220.0 180.0 -0.7427813410758972 -0.5570859909057617 0.3713906705379486
228.0 220.0 181.0 -0.8682431578636169 -0.49613893032073975 0.0
229.0 219.0 182.0 -0.3244428336620331 -0.8111070990562439 0.4866642653942108
228.0 220.0 182.0 -1.0 -6.34413185289139e-17 0.0
229.0 219.0 183.0 -0.4472135901451111 -0.8944271802902222 6.620091216639901e-17
228.0 220.0 183.0 -1.0 -4.440892164675075e-17 1.77635686587003e-16
229.0 220.0 184.0 -0.27216553688049316 -0.6804138422012329 0.6804138422012329
228.0 220.0 220.0 -1.0 -7.401487051415874e-17 -1.1102230246251565e-16
229.0 220.0 219.0 -0.27216553688049316 -0.6804138422012329 -0.6804138422012329
229.0 219.0 220.0 -0.5144957304000854 -0.8574929237365723 -1.142410011923024e-16
229.0 219.0 221.0 -0.4285714328289032 -0.8571428656578064 -0.2857142984867096
228.0 220.0 221.0 -1.0 -3.700743525707937e-17 0.0
228.0 220.0 222.0 -0.8320503234863281 -0.5547001957893372 0.0
228.0 220.0 223.0 -0.7427813410758972 -0.3713906705379486 -0.5570859909057617
229.0 220.0 244.0 0.0 0.0 1.0
229.0 221.0 37.0 0.0 0.0 -1.0
228.0 221.0 46.0 -0.8574929237365723 0.0 0.5144957304000854
228.0 221.0 47.0 -1.0 0.0 1.332267682489747e-16
229.0 221.0 48.0 -0.3162277638912201 0.0 0.9486833214759827
229.0 221.0 165.0 0.0 0.0 -1.0
228.0 221.0 182.0 -0.5656854510307312 -0.7071067690849304 0.4242640733718872
228.0 221.0 183.0 -0.8682431578636169 -0.49613893032073975 0.0
229.0 220.0 184.0 -0.3244428336620331 -0.8111070990562439 0.4866642653942108
228.0 221.0 184.0 -1.0 -6.34413185289139e-17 0.0
229.0 220.0 185.0 -0.5299989581108093 -0.847998321056366 9.414672608802532e-17
228.0 221.0 185.0 -1.0 -5.551115123125783e-17 1.6653345369377348e-16
229.0 221.0 186.0 -0.3244428336620331 -0.4866642653942108 0.8111070990562439
228.0 221.0 218.0 -1.0 -7.401487051415874e-17 -1.1102230246251565e-16
229.0 221.0 217.0 -0.27216553688049316 -0.6804138422012329 -0.6804138422012329
229.0 220.0 218.0 -0.5144957304000854 -0.8574929237365723 -1.142410011923024e-16
229.0 220.0 219.0 -0.4285714328289032 -0.8571428656578064 -0.2857142984867096
228.0 221.0 219.0 -1.0 -3.700743525707937e-17 0.0
228.0 221.0 220.0 -0.8320503234863281 -0.5547001957893372 0.0
228.0 221.0 221.0 -0.5298129320144653 -0.662266194820404 -0.5298129320144653
229.0 221.0 244.0 0.0 0.0 1.0
229.0 222.0 37.0 0.0 1.1102230246251565e-16 -1.0
228.0 222.0 46.0 -0.8574929237365723 0.0 0.5144957304000854
228.0 222.0 47.0 -1.0 0.0 1.332267682489747e-16
229.0 222.0 48.0 -0.39391928911209106 0.0 0.9191450476646423
229.0 222.0 100.0 1.0 -5.551115123125783e-17 -1.1102230246251565e-16
229.0 222.0 101.0 1.0 -1.1102230246251565e-16 1.1102230246251565e-16
229.0 222.0 165.0 0.0 0.0 -1.0
228.0 222.0 184.0 -0.7453559637069702 -0.2981424033641815 0.596284806728363
228.0 222.0 185.0 -1.0 0.0 1.4802974102831747e-16
229.0 222.0 186.0 -0.4285714328289032 -0.2857142984867096 0.8571428656578064
228.0 222.0 216.0 -1.0 -7.401487051415874e-17 -1.1102230246251565e-16
229.0 222.0 215.0 -0.27216553688049316 -0.6804138422012329 -0.6804138422012329
229.0 221.0 216.0 -0.5144957304000854 -0.8574929237365723 -1.142410011923024e-16
229.0 221.0 217.0 -0.4285714328289032 -0.8571428656578064 -0.2857142984867096
228.0 222.0 217.0 -1.0 -3.172065926445695e-17 0.0
228.0 222.0 218.0 -1.0 -4.440892164675075e-17 0.0
228.0 222.0 219.0 -0.6246950626373291 -0.4685212969779968 -0.6246950626373291
229.0 222.0 244.0 0.0 1.1102230246251565e-16 1.0
229.0 223.0 38.0 0.0 1.0 -2.220446049250313e-16
229.0 223.0 39.0 0.0 0.7071067690849304 -0.7071067690849304
229.0 223.0 39.0 0.0 1.1102230246251565e-16 -1.0
228.0 223.0 46.0 -0.7427813410758972 -0.5570859909057617 0.3713906705379486
228.0 223.0 47.0 -0.8574929237365723 -0.5144957304000854 1.142410011923024e-16
229.0 223.0 48.0 -0.39391928911209106 0.0 0.9191450476646423
229.0 223.0 97.0 0.11624763906002045 -0.34874290227890015 -0.9299811124801636
229.0 222.0 98.0 8.88178432935015e-17 -1.0 -8.88178432935015e-17
229.0 222.0 99.0 1.268826370578278e-16 -1.0 1.268826370578278e-16
229.0 223.0 100.0 0.4242640733718872 -0.7071067690849304 0.5656854510307312
229.0 223.0 100.0 0.27216553688049316 -0.6804138422012329 0.6804138422012329
229.0 223.0 101.0 0.8320503234863281 -0.5547001957893372 1.2316818582588088e-16
229.0 223.0 164.0 0.800000011920929 -0.6000000238418579 -1.332267682489747e-16
229.0 223.0 165.0 0.8111070990562439 -0.4866642653942108 -0.3244428336620331
229.0 223.0 165.0 0.13608276844024658 -0.27216553688049316 -0.9525793194770813
228.0 223.0 184.0 -0.7427813410758972 -0.5570859909057617 0.3713906705379486
228.0 223.0 185.0 -0.8682431578636169 -0.49613893032073975 0.0
229.0 222.0 186.0 -0.3244428336620331 -0.8111070990562439 0.4866642653942108
228.0 223.0 186.0 -1.0 -6.34413185289139e-17 0.0
229.0 222.0 187.0 -0.4472135901451111 -0.8944271802902222 6.620091216639901e-17
228.0 223.0 187.0 -1.0 -4.440892164675075e-17 1.77635686587003e-16
229.0 223.0 188.0 -0.27216553688049316 -0.6804138422012329 0.6804138422012329
228.0 223.0 214.0 -1.0 -8.88178432935015e-17 -8.88178432935015e-17
229.0 223.0 213.0 -0.4285714328289032 -0.2857142984867096 -0.8571428656578064
229.0 222.0 214.0 -0.5144957304000854 -0.8574929237365723 -1.142410011923024e-16
229.0 222.0 215.0 -0.4285714328289032 -0.8571428656578064 -0.2857142984867096
228.0 223.0 215.0 -1.0 -3.172065926445695e-17 0.0
228.0 223.0 216.0 -1.0 -4.440892164675075e-17 0.0
228.0 223.0 217.0 -1.0 0.0 0.0
228.0 223.0 218.0 -0.8682431578636169 -0.49613893032073975 0.0
228.0 223.0 219.0 -0.7427813410758972 -0.3713906705379486 -0.5570859909057617
229.0 223.0 242.0 0.0 0.7071067690849304 0.7071067690849304
229.0 223.0 242.0 0.0 1.1102230246251565e-16 1.0
229.0 223.0 243.0 0.0 1.0 2.220446049250313e-16
229.0 224.0 39.0 0.0 0.0 -1.0
229.0 224.0 48.0 -0.16439898312091827 0.0 0.986393928527832
229.0 224.0 97.0 3.079204645647022e-17 -0.5547001957893372 -0.8320503234863281
229.0 223.0 100.0 0.4285714328289032 -0.8571428656578064 0.2857142984867096
229.0 223.0 101.0 0.5547001957893372 -0.8320503234863281 1.2316818582588088e-16
229.0 224.0 102.0 0.7427813410758972 -0.3713906705379486 0.5570859909057617
229.0 224.0 102.0 0.4285714328289032 -0.2857142984867096 0.8571428656578064
229.0 224.0 103.0 1.0 -1.1102230246251565e-16 0.0
229.0 224.0 104.0 1.0 -1.1102230246251565e-16 0.0
229.0 224.0 105.0 1.0 -8.88178432935015e-17 1.332267682489747e-16
229.0 224.0 163.0 0.0 -0.49613893032073975 -0.8682431578636169
229.0 223.0 164.0 0.39391928911209106 -0.9191450476646423 -8.746765292324345e-17
229.0 223.0 165.0 0.3244428336620331 -0.8111070990562439 -0.4866642653942108
228.0 224.0 186.0 -0.7453559637069702 -0.2981424033641815 0.596284806728363
228.0 224.0 187.0 -1.0 -3.700743525707937e-17 0.0
229.0 223.0 188.0 -0.3244428336620331 -0.8111070990562439 0.4866642653942108
228.0 224.0 188.0 -1.0 -6.34413185289139e-17 0.0
229.0 223.0 189.0 -0.5299989581108093 -0.847998321056366 9.414672608802532e-17
228.0 224.0 189.0 -1.0 -4.440892164675075e-17 1.77635686587003e-16
229.0 224.0 190.0 -0.27216553688049316 -0.6804138422012329 0.6804138422012329
228.0 224.0 214.0 -1.0 0.0 -1.77635686587003e-16
229.0 224.0 213.0 -0.3244428336620331 -0.4866642653942108 -0.8111070990562439
228.0 224.0 215.0 -1.0 0.0 0.0
228.0 224.0 216.0 -0.8682431578636169 -0.49613893032073975 0.0
228.0 224.0 217.0 -0.5298129320144653 -0.662266194820404 -0.5298129320144653
229.0 224.0 242.0 0.0 0.0 1.0
229.0 225.0 39.0 0.0 0.0 -1.0
229.0 225.0 48.0 -0.14744195342063904 -0.4423258602619171 0.8846517205238342
228.0 225.0 96.0 -1.0 -8.88178432935015e-17 -8.88178432935015e-17
229.0 225.0 95.0 -0.14744195342063904 -0.4423258602619171 -0.8846517205238342
229.0 224.0 96.0 -0.5144957304000854 -0.8574929237365723 -1.142410011923024e-16
229.0 224.0 97.0 -0.5035088062286377 -0.7552632093429565 -0.41959068179130554
228.0 225.0 97.0 -0.7071067690849304 -5.2336415496667056e-17 -0.7071067690849304
229.0 225.0 102.0 0.6396021246910095 -0.42640143632888794 0.6396021246910095
229.0 225.0 102.0 0.40824830532073975 -0.40824830532073975 0.8164966106414795
229.0 225.0 103.0 0.8944271802902222 -0.4472135901451111 0.0
229.0 225.0 104.0 0.8944271802902222 -0.4472135901451111 0.0
229.0 225.0 105.0 0.8682431578636169 -0.49613893032073975 0.0
229.0 225.0 106.0 1.0 -3.172065926445695e-17 0.0
229.0 225.0 107.0 1.0 -1.1102230246251565e-16 1.1102230246251565e-16
229.0 225.0 163.0 0.0 -0.49613893032073975 -0.8682431578636169
228.0 225.0 186.0 -0.7427813410758972 -0.5570859909057617 0.3713906705379486
228.0 225.0 187.0 -0.8682431578636169 -0.49613893032073975 0.0
228.0 225.0 188.0 -1.0 0.0 0.0
228.0 225.0 189.0 -1.0 -3.700743525707937e-17 0.0
229.0 224.0 190.0 -0.3244428336620331 -0.8111070990562439 0.4866642653942108
228.0 225.0 190.0 -1.0 -6.34413185289139e-17 0.0
229.0 224.0 191.0 -0.4472135901451111 -0.8944271802902222 6.620091216639901e-17
228.0 225.0 191.0 -1.0 -4.440892164675075e-17 1.77635686587003e-16
229.0 225.0 192.0 -0.27216553688049316 -0.6804138422012329 0.6804138422012329
228.0 225.0 208.0 -1.0 -7.401487051415874e-17 -1.1102230246251565e-16
229.0 225.0 207.0 -0.27216553688049316 -0.6804138422012329 -0.6804138422012329
229.0 224.0 208.0 -0.5144957304000854 -0.8574929237365723 -1.142410011923024e-16
229.0 224.0 209.0 -0.4472135901451111 -0.8944271802902222 6.620091216639901e-17
228.0 225.0 209.0 -1.0 -4.440892164675075e-17 1.77635686587003e-16
229.0 225.0 210.0 -0.27216553688049316 -0.6804138422012329 0.6804138422012329
228.0 225.0 212.0 -1.0 -7.401487051415874e-17 -1.1102230246251565e-16
229.0 225.0 211.0 -0.27216553688049316 -0.6804138422012329 -0.6804138422012329
229.0 224.0 212.0 -0.5144957304000854 -0.8574929237365723 -1.142410011923024e-16
229.0 224.0 213.0 -0.4285714328289032 -0.8571428656578064 -0.2857142984867096
228.0 225.0 213.0 -1.0 -3.700743525707937e-17 0.0
228.0 225.0 214.0 -0.8320503234863281 -0.5547001957893372 0.0
228.0 225.0 215.0 -0.5298129320144653 -0.662266194820404 -0.5298129320144653
229.0 225.0 242.0 0.0 0.0 1.0
229.0 226.0 39.0 0.0 1.1102230246251565e-16 -1.0
229.0 225.0 48.0 -0.3244428336620331 -0.8111070990562439 0.4866642653942108
228.0 226.0 48.0 -0.8944271802902222 -6.620091216639901e-17 0.4472135901451111
229.0 225.0 49.0 -0.5299989581108093 -0.847998321056366 9.414672608802532e-17
228.0 226.0 49.0 -1.0 -5.551115123125783e-17 1.6653345369377348e-16
229.0 226.0 50.0 -0.3244428336620331 -0.4866642653942108 0.8111070990562439
228.0 226.0 96.0 -1.0 0.0 -1.6653345369377348e-16
229.0 226.0 95.0 -0.39391928911209106 0.0 -0.9191450476646423
228.0 226.0 97.0 -0.800000011920929 0.0 -0.6000000238418579
229.0 225.0 102.0 0.31799936294555664 -0.847998321056366 0.423999160528183
229.0 225.0 103.0 0.4472135901451111 -0.8944271802902222 0.0
229.0 225.0 104.0 0.4472135901451111 -0.8944271802902222 0.0
229.0 225.0 105.0 0.5144957304000854 -0.8574929237365723 1.142410011923024e-16
229.0 226.0 106.0 0.4285714328289032 -0.2857142984867096 0.8571428656578064
229.0 226.0 106.0 0.6246950626373291 -0.4685212969779968 0.6246950626373291
229.0 226.0 107.0 1.0 0.0 1.77635686587003e-16
229.0 226.0 161.0 0.14744195342063904 -0.4423258602619171 -0.8846517205238342
229.0 225.0 162.0 8.88178432935015e-17 -1.0 -8.88178432935015e-17
229.0 225.0 163.0 3.3100456083199505e-17 -0.8944271802902222 -0.4472135901451111
228.0 226.0 188.0 -0.5656854510307312 -0.7071067690849304 0.4242640733718872
228.0 226.0 189.0 -0.8682431578636169 -0.49613893032073975 0.0
228.0 226.0 190.0 -1.0 0.0 0.0
228.0 226.0 191.0 -1.0 -4.440892164675075e-17 0.0
229.0 225.0 192.0 -0.3244428336620331 -0.8111070990562439 0.4866642653942108
228.0 226.0 192.0 -0.8944271802902222 -0.4472135901451111 0.0
229.0 225.0 193.0 -0.4472135901451111 -0.8944271802902222 0.0
228.0 226.0 193.0 -0.8682431578636169 -0.49613893032073975 0.0
229.0 225.0 194.0 -0.4472135901451111 -0.8944271802902222 0.0
228.0 226.0 194.0 -1.0 -1.1102230246251565e-16 0.0
229.0 225.0 195.0 -0.4472135901451111 -0.8944271802902222 0.0
228.0 226.0 195.0 -1.0 -1.1102230246251565e-16 0.0
229.0 225.0 196.0 -0.4472135901451111 -0.8944271802902222 0.0
228.0 226.0 196.0 -1.0 -1.1102230246251565e-16 0.0
229.0 225.0 197.0 -0.4472135901451111 -0.8944271802902222 6.620091216639901e-17
228.0 226.0 197.0 -1.0 -4.440892164675075e-17 1.77635686587003e-16
229.0 226.0 198.0 -0.27216553688049316 -0.6804138422012329 0.6804138422012329
228.0 226.0 206.0 -1.0 -7.401487051415874e-17 -1.1102230246251565e-16
229.0 226.0 205.0 -0.27216553688049316 -0.6804138422012329 -0.6804138422012329
229.0 225.0 206.0 -0.5144957304000854 -0.8574929237365723 -1.142410011923024e-16
229.0 225.0 207.0 -0.4285714328289032 -0.8571428656578064 -0.2857142984867096
228.0 226.0 207.0 -1.0 -3.172065926445695e-17 0.0
228.0 226.0 208.0 -1.0 -4.440892164675075e-17 0.0
228.0 226.0 209.0 -1.0 -4.440892164675075e-17 0.0
229.0 225.0 210.0 -0.3244428336620331 -0.8111070990562439 0.4866642653942108
228.0 226.0 210.0 -0.8944271802902222 -0.4472135901451111 0.0
229.0 225.0 211.0 -0.4285714328289032 -0.8571428656578064 -0.2857142984867096
228.0 226.0 211.0 -0.9191450476646423 -0.39391928911209106 0.0
228.0 226.0 212.0 -0.8574929237365723 -0.5144957304000854 0.0
228.0 226.0 213.0 -0.5298129320144653 -0.662266194820404 -0.5298129320144653
228.0 226.0 240.0 -0.7844645380973816 0.1961161345243454 0.588348388671875
228.0 226.0 241.0 -0.9284766912460327 0.3713906705379486 8.246529471244126e-17
229.0 226.0 242.0 -0.39391928911209106 5.831177302712557e-17 0.9191450476646423
229.0 227.0 40.0 0.0 1.0 -2.220446049250313e-16
229.0 227.0 41.0 0.0 0.7071067690849304 -0.7071067690849304
229.0 227.0 41.0 0.0 1.1102230246251565e-16 -1.0
228.0 227.0 48.0 -0.7427813410758972 -0.5570859909057617 0.3713906705379486
228.0 227.0 49.0 -0.8574929237365723 -0.5144957304000854 1.142410011923024e-16
229.0 227.0 50.0 -0.39391928911209106 0.0 0.9191450476646423
228.0 227.0 96.0 -0.800000011920929 -0.6000000238418579 -1.332267682489747e-16
229.0 227.0 95.0 -0.39391928911209106 0.0 -0.9191450476646423
228.0 227.0 97.0 -0.7427813410758972 -0.3713906705379486 -0.5570859909057617
229.0 227.0 106.0 0.6396021246910095 -0.42640143632888794 0.6396021246910095
229.0 227.0 106.0 0.3244428336620331 -0.4866642653942108 0.8111070990562439
229.0 227.0 107.0 0.8682431578636169 -0.49613893032073975 0.0
229.0 227.0 108.0 1.0 -3.172065926445695e-17 0.0
229.0 227.0 109.0 1.0 -1.1102230246251565e-16 1.1102230246251565e-16
229.0 227.0 161.0 0.2747211158275604 0.0 -0.9615239500999451
228.0 227.0 190.0 -0.5656854510307312 -0.7071067690849304 0.4242640733718872
228.0 227.0 191.0 -0.5298129320144653 -0.662266194820404 -0.5298129320144653
228.0 227.0 194.0 -0.7453559637069702 -0.2981424033641815 0.596284806728363
228.0 227.0 195.0 -1.0 0.0 0.0
228.0 227.0 196.0 -0.8682431578636169 -0.49613893032073975 0.0
228.0 227.0 197.0 -0.8682431578636169 -0.49613893032073975 0.0
229.0 226.0 198.0 -0.3244428336620331 -0.8111070990562439 0.4866642653942108
228.0 227.0 198.0 -1.0 -6.34413185289139e-17 0.0
229.0 226.0 199.0 -0.4472135901451111 -0.8944271802902222 0.0
228.0 227.0 199.0 -1.0 -1.1102230246251565e-16 0.0
229.0 226.0 200.0 -0.4472135901451111 -0.8944271802902222 0.0
228.0 227.0 200.0 -1.0 -1.1102230246251565e-16 0.0
229.0 226.0 201.0 -0.4472135901451111 -0.8944271802902222 0.0
228.0 227.0 201.0 -1.0 -1.1102230246251565e-16 0.0
229.0 226.0 202.0 -0.4472135901451111 -0.8944271802902222 0.0
228.0 227.0 202.0 -1.0 -1.1102230246251565e-16 0.0
229.0 226.0 203.0 -0.4472135901451111 -0.8944271802902222 0.0
228.0 227.0 203.0 -1.0 -1.1102230246251565e-16 0.0
229.0 226.0 204.0 -0.4472135901451111 -0.8944271802902222 0.0
228.0 227.0 204.0 -1.0 -1.1102230246251565e-16 0.0
229.0 226.0 205.0 -0.4285714328289032 -0.8571428656578064 -0.2857142984867096
228.0 227.0 205.0 -1.0 -3.700743525707937e-17 0.0
228.0 227.0 206.0 -0.8320503234863281 -0.5547001957893372 0.0
228.0 227.0 207.0 -0.8944271802902222 -0.4472135901451111 0.0
228.0 227.0 208.0 -0.8944271802902222 -0.4472135901451111 0.0
228.0 227.0 209.0 -0.5298129320144653 -0.662266194820404 -0.5298129320144653
229.0 227.0 240.0 -1.332267682489747e-16 0.800000011920929 0.6000000238418579
229.0 227.0 240.0 0.0 1.268826370578278e-16 1.0
229.0 227.0 241.0 -2.220446049250313e-16 1.0 3.3306690738754696e-16
229.0 228.0 41.0 0.0 0.0 -1.0
229.0 228.0 50.0 -0.14744195342063904 -0.4423258602619171 0.8846517205238342
229.0 228.0 95.0 -0.1373605579137802 -0.5494422316551208 -0.8241633772850037
229.0 227.0 106.0 0.4285714328289032 -0.8571428656578064 0.2857142984867096
229.0 227.0 107.0 0.5144957304000854 -0.8574929237365723 1.142410011923024e-16
229.0 228.0 108.0 0.4285714328289032 -0.2857142984867096 0.8571428656578064
229.0 228.0 108.0 0.6246950626373291 -0.4685212969779968 0.6246950626373291
229.0 228.0 109.0 1.0 0.0 1.77635686587003e-16
229.0 228.0 161.0 0.0 0.0 -1.0
228.0 228.0 194.0 -0.7427813410758972 -0.5570859909057617 0.3713906705379486
228.0 228.0 195.0 -0.5298129320144653 -0.662266194820404 -0.5298129320144653
228.0 228.0 198.0 -0.5656854510307312 -0.7071067690849304 0.4242640733718872
228.0 228.0 199.0 -0.8944271802902222 -0.4472135901451111 0.0
228.0 228.0 200.0 -0.8944271802902222 -0.4472135901451111 0.0
228.0 228.0 201.0 -0.8944271802902222 -0.4472135901451111 0.0
228.0 228.0 202.0 -0.8944271802902222 -0.4472135901451111 0.0
228.0 228.0 203.0 -0.8944271802902222 -0.4472135901451111 0.0
228.0 228.0 204.0 -0.8944271802902222 -0.4472135901451111 0.0
228.0 228.0 205.0 -0.5298129320144653 -0.662266194820404 -0.5298129320144653
229.0 228.0 240.0 0.0 0.0 1.0
229.0 229.0 41.0 0.0 0.0 -1.0
229.0 228.0 50.0 -0.3244428336620331 -0.8111070990562439 0.4866642653942108
228.0 229.0 50.0 -0.8944271802902222 -6.620091216639901e-17 0.4472135901451111
229.0 228.0 51.0 -0.5299989581108093 -0.847998321056366 9.414672608802532e-17
228.0 229.0 51.0 -1.0 -5.551115123125783e-17 1.6653345369377348e-16
229.0 229.0 52.0 -0.3244428336620331 -0.4866642653942108 0.8111070990562439
228.0 229.0 94.0 -1.0 -8.88178432935015e-17 -8.88178432935015e-17
229.0 229.0 93.0 -0.3665083348751068 -0.3665083348751068 -0.8551861047744751
229.0 228.0 94.0 -0.4472135901451111 -0.8944271802902222 -9.930136494087607e-17
229.0 228.0 95.0 -0.4285714328289032 -0.8571428656578064 -0.2857142984867096
228.0 229.0 95.0 -0.7071067690849304 -5.2336415496667056e-17 -0.7071067690849304
229.0 229.0 108.0 0.6396021246910095 -0.42640143632888794 0.6396021246910095
229.0 229.0 108.0 0.3244428336620331 -0.4866642653942108 0.8111070990562439
229.0 229.0 109.0 0.8682431578636169 -0.49613893032073975 0.0
229.0 229.0 110.0 1.0 -3.172065926445695e-17 0.0
229.0 229.0 111.0 1.0 -8.88178432935015e-17 1.332267682489747e-16
229.0 229.0 161.0 0.0 0.0 -1.0
229.0 229.0 240.0 0.0 0.0 1.0
228.0 230.0 42.0 -0.9486833214759827 0.3162277638912201 -2.1065001331610104e-16
229.0 230.0 41.0 -0.2747211158275604 9.150051575146408e-17 -0.9615239500999451
228.0 230.0 43.0 -0.8703882694244385 0.34815531969070435 -0.34815531969070435
228.0 230.0 50.0 -0.8574929237365723 0.0 0.5144957304000854
228.0 230.0 51.0 -1.0 0.0 1.332267682489747e-16
229.0 230.0 52.0 -0.4472135901451111 0.0 0.8944271802902222
228.0 230.0 94.0 -1.0 0.0 -1.77635686587003e-16
229.0 230.0 93.0 -0.3244428336620331 -0.4866642653942108 -0.8111070990562439
228.0 230.0 95.0 -0.800000011920929 0.0 -0.6000000238418579
229.0 229.0 108.0 0.4285714328289032 -0.8571428656578064 0.2857142984867096
229.0 229.0 109.0 0.5144957304000854 -0.8574929237365723 1.142410011923024e-16
229.0 230.0 110.0 0.4285714328289032 -0.2857142984867096 0.8571428656578064
229.0 230.0 110.0 0.6246950626373291 -0.4685212969779968 0.6246950626373291
229.0 230.0 111.0 1.0 -3.700743525707937e-17 0.0
229.0 230.0 112.0 1.0 -3.172065926445695e-17 0.0
229.0 230.0 113.0 1.0 -8.88178432935015e-17 1.332267682489747e-16
229.0 230.0 161.0 0.4472135901451111 6.620091216639901e-17 -0.8944271802902222
229.0 230.0 240.0 0.0 0.0 1.0
229.0 231.0 42.0 -1.6653345369377348e-16 1.0 -1.1102230246251565e-16
229.0 231.0 43.0 -1.8475228535626623e-16 0.5547001957893372 -0.8320503234863281
229.0 231.0 43.0 0.0 1.268826370578278e-16 -1.0
228.0 231.0 50.0 -0.7427813410758972 -0.5570859909057617 0.3713906705379486
228.0 231.0 51.0 -0.8944271802902222 -0.4472135901451111 9.930136494087607e-17
229.0 231.0 52.0 -0.3665083348751068 -0.3665083348751068 0.8551861047744751
228.0 231.0 92.0 -1.0 -8.88178432935015e-17 -8.88178432935015e-17
229.0 231.0 91.0 -0.3665083348751068 -0.3665083348751068 -0.8551861047744751
229.0 230.0 92.0 -0.4472135901451111 -0.8944271802902222 -9.930136494087607e-17
229.0 230.0 93.0 -0.4285714328289032 -0.8571428656578064 -0.2857142984867096
228.0 231.0 93.0 -1.0 -3.700743525707937e-17 0.0
228.0 231.0 94.0 -0.8320503234863281 -0.5547001957893372 0.0
228.0 231.0 95.0 -0.7427813410758972 -0.3713906705379486 -0.5570859909057617
229.0 231.0 110.0 0.6396021246910095 -0.42640143632888794 0.6396021246910095
229.0 231.0 110.0 0.3244428336620331 -0.4866642653942108 0.8111070990562439
229.0 231.0 111.0 0.8682431578636169 -0.49613893032073975 0.0
229.0 231.0 112.0 1.0 0.0 0.0
229.0 231.0 113.0 1.0 -3.700743525707937e-17 0.0
229.0 231.0 114.0 1.0 -3.172065926445695e-17 0.0
229.0 231.0 115.0 1.0 -8.88178432935015e-17 1.332267682489747e-16
229.0 231.0 118.0 1.0 -3.700743525707937e-17 -1.4802974102831747e-16
229.0 231.0 119.0 1.0 -1.1102230246251565e-16 1.1102230246251565e-16
229.0 231.0 162.0 2.220446049250313e-16 1.0 -3.3306690738754696e-16
229.0 231.0 163.0 1.332267682489747e-16 0.800000011920929 -0.6000000238418579
229.0 231.0 163.0 0.0 1.268826370578278e-16 -1.0
228.0 231.0 238.0 -0.7844645380973816 0.1961161345243454 0.588348388671875
228.0 231.0 239.0 -0.9284766912460327 0.3713906705379486 8.246529471244126e-17
229.0 231.0 240.0 -0.1414213627576828 6.280370124297843e-17 0.9899494647979736
229.0 232.0 43.0 0.0 0.0 -1.0
229.0 231.0 52.0 -0.26726123690605164 -0.8017837405204773 0.5345224738121033
228.0 232.0 52.0 -0.8846517205238342 -0.14744195342063904 0.4423258602619171
229.0 231.0 53.0 -0.4472135901451111 -0.8944271802902222 6.620091216639901e-17
228.0 232.0 53.0 -1.0 -5.551115123125783e-17 1.6653345369377348e-16
229.0 232.0 54.0 -0.3244428336620331 -0.4866642653942108 0.8111070990562439
228.0 232.0 92.0 -1.0 0.0 -1.77635686587003e-16
229.0 232.0 91.0 -0.3244428336620331 -0.4866642653942108 -0.8111070990562439
228.0 232.0 93.0 -0.6246950626373291 -0.4685212969779968 -0.6246950626373291
229.0 231.0 110.0 0.4285714328289032 -0.8571428656578064 0.2857142984867096
229.0 231.0 111.0 0.5144957304000854 -0.8574929237365723 1.142410011923024e-16
229.0 232.0 112.0 0.27216553688049316 -0.6804138422012329 0.6804138422012329
229.0 232.0 112.0 0.4242640733718872 -0.7071067690849304 0.5656854510307312
229.0 232.0 113.0 0.8944271802902222 -0.4472135901451111 0.0
229.0 232.0 114.0 0.8944271802902222 -0.4472135901451111 0.0
229.0 232.0 115.0 0.8944271802902222 -0.4472135901451111 0.0
229.0 232.0 116.0 0.9191450476646423 -0.39391928911209106 0.0
229.0 232.0 117.0 0.9191450476646423 -0.39391928911209106 0.0
229.0 232.0 118.0 0.8574929237365723 -0.5144957304000854 0.0
229.0 232.0 119.0 0.8574929237365723 -0.5144957304000854 1.142410011923024e-16
229.0 232.0 163.0 0.0 0.0 -1.0
229.0 232.0 238.0 0.0 0.7071067690849304 0.7071067690849304
229.0 232.0 238.0 0.0 1.3877787807814457e-16 1.0
229.0 232.0 239.0 7.401487051415874e-17 1.0 1.4802974102831747e-16
229.0 233.0 43.0 0.0 1.1102230246251565e-16 -1.0
228.0 233.0 52.0 -0.7427813410758972 -0.5570859909057617 0.3713906705379486
228.0 233.0 53.0 -0.8944271802902222 -0.4472135901451111 9.930136494087607e-17
229.0 233.0 54.0 -0.3665083348751068 -0.3665083348751068 0.8551861047744751
228.0 233.0 90.0 -1.0 -8.88178432935015e-17 -8.88178432935015e-17
229.0 233.0 89.0 -0.4285714328289032 -0.2857142984867096 -0.8571428656578064
229.0 232.0 90.0 -0.5144957304000854 -0.8574929237365723 -1.142410011923024e-16
229.0 232.0 91.0 -0.4285714328289032 -0.8571428656578064 -0.2857142984867096
228.0 233.0 91.0 -1.0 -3.700743525707937e-17 0.0
228.0 233.0 92.0 -0.8320503234863281 -0.5547001957893372 0.0
228.0 233.0 93.0 -0.7427813410758972 -0.3713906705379486 -0.5570859909057617
229.0 232.0 112.0 0.4285714328289032 -0.8571428656578064 0.2857142984867096
229.0 232.0 113.0 0.4472135901451111 -0.8944271802902222 0.0
229.0 232.0 114.0 0.4472135901451111 -0.8944271802902222 0.0
229.0 232.0 115.0 0.4472135901451111 -0.8944271802902222 0.0
229.0 232.0 116.0 0.4472135901451111 -0.8944271802902222 0.0
229.0 232.0 117.0 0.4472135901451111 -0.8944271802902222 0.0
229.0 232.0 118.0 0.4472135901451111 -0.8944271802902222 0.0
229.0 232.0 119.0 0.5144957304000854 -0.8574929237365723 1.142410011923024e-16
229.0 233.0 120.0 0.11704114824533463 -0.702246904373169 0.702246904373169
229.0 233.0 163.0 0.0 1.268826370578278e-16 -1.0
229.0 233.0 238.0 0.0 1.268826370578278e-16 1.0
229.0 234.0 44.0 0.0 1.0 -2.220446049250313e-16
229.0 234.0 45.0 0.0 0.7071067690849304 -0.7071067690849304
229.0 234.0 45.0 0.0 1.1102230246251565e-16 -1.0
229.0 233.0 54.0 -0.26726123690605164 -0.8017837405204773 0.5345224738121033
228.0 234.0 54.0 -0.8846517205238342 -0.14744195342063904 0.4423258602619171
229.0 233.0 55.0 -0.4472135901451111 -0.8944271802902222 6.620091216639901e-17
228.0 234.0 55.0 -1.0 -5.551115123125783e-17 1.6653345369377348e-16
229.0 234.0 56.0 -0.3244428336620331 -0.4866642653942108 0.8111070990562439
228.0 234.0 90.0 -1.0 0.0 -1.77635686587003e-16
229.0 234.0 89.0 -0.3244428336620331 -0.4866642653942108 -0.8111070990562439
228.0 234.0 91.0 -0.6246950626373291 -0.4685212969779968 -0.6246950626373291
229.0 233.0 120.0 9.930136494087607e-17 -0.8944271802902222 0.4472135901451111
229.0 233.0 121.0 3.700743525707937e-17 -1.0 1.1102230246251565e-16
229.0 234.0 122.0 0.13608276844024658 -0.27216553688049316 0.9525793194770813
229.0 234.0 164.0 -0.5547001957893372 0.8320503234863281 -1.8475228535626623e-16
229.0 234.0 165.0 -0.22941572964191437 0.6882472038269043 -0.6882472038269043
229.0 234.0 165.0 -0.39391928911209106 5.831177302712557e-17 -0.9191450476646423
229.0 234.0 236.0 0.8703882694244385 0.34815531969070435 0.34815531969070435
229.0 234.0 236.0 0.22941572964191437 0.6882472038269043 0.6882472038269043
229.0 234.0 236.0 0.4472135901451111 6.620091216639901e-17 0.8944271802902222
229.0 234.0 237.0 0.9486833214759827 0.3162277638912201 2.1065001331610104e-16
229.0 234.0 237.0 0.5547001957893372 0.8320503234863281 1.8475228535626623e-16
229.0 235.0 45.0 0.0 0.0 -1.0
228.0 235.0 54.0 -0.7427813410758972 -0.5570859909057617 0.3713906705379486
228.0 235.0 55.0 -0.8944271802902222 -0.4472135901451111 9.930136494087607e-17
229.0 235.0 56.0 -0.3665083348751068 -0.3665083348751068 0.8551861047744751
228.0 235.0 88.0 -1.0 -7.401487051415874e-17 -1.1102230246251565e-16
229.0 235.0 87.0 -0.27216553688049316 -0.6804138422012329 -0.6804138422012329
229.0 234.0 88.0 -0.5144957304000854 -0.8574929237365723 -1.142410011923024e-16
229.0 234.0 89.0 -0.4285714328289032 -0.8571428656578064 -0.2857142984867096
228.0 235.0 89.0 -1.0 -3.700743525707937e-17 0.0
228.0 235.0 90.0 -0.8320503234863281 -0.5547001957893372 0.0
228.0 235.0 91.0 -0.7427813410758972 -0.3713906705379486 -0.5570859909057617
229.0 235.0 122.0 0.0 0.0 1.0
229.0 235.0 165.0 0.0 0.0 -1.0
229.0 235.0 236.0 0.0 0.0 1.0
229.0 236.0 45.0 0.0 1.1102230246251565e-16 -1.0
229.0 235.0 56.0 -0.26726123690605164 -0.8017837405204773 0.5345224738121033
228.0 236.0 56.0 -0.8846517205238342 -0.14744195342063904 0.4423258602619171
229.0 235.0 57.0 -0.4472135901451111 -0.8944271802902222 6.620091216639901e-17
228.0 236.0 57.0 -1.0 -4.440892164675075e-17 1.77635686587003e-16
229.0 236.0 58.0 -0.27216553688049316 -0.6804138422012329 0.6804138422012329
228.0 236.0 86.0 -1.0 -7.401487051415874e-17 -1.1102230246251565e-16
229.0 236.0 85.0 -0.27216553688049316 -0.6804138422012329 -0.6804138422012329
