ply
format ascii 1.0
element vertex 779
property float x
property float y
property float z
property float nx
property float ny
property float nz
end_header
89.0 87.0 140.0 -0.2747211158275604 9.150051575146408e-17 0.9615239500999451
89.0 87.0 141.0 -0.3162277638912201 0.9486833214759827 2.1065001331610104e-16
88.0 88.0 92.0 -1.0 0.0 -1.1102230246251565e-16
89.0 88.0 91.0 -0.4866642653942108 -0.3244428336620331 -0.8111070990562439
89.0 87.0 92.0 -0.5144957304000854 -0.8574929237365723 -1.142410011923024e-16
89.0 87.0 93.0 -0.4472135901451111 -0.8944271802902222 0.0
88.0 88.0 93.0 -1.0 3.172065926445695e-17 0.0
89.0 87.0 94.0 -0.4472135901451111 -0.8944271802902222 0.0
88.0 88.0 94.0 -1.0 -1.1102230246251565e-16 0.0
89.0 87.0 95.0 -0.49613893032073975 -0.8682431578636169 0.0
88.0 88.0 95.0 -1.0 -1.332267682489747e-16 0.0
89.0 87.0 96.0 -1.1102230246251565e-16 -1.0 0.0
88.0 88.0 96.0 -0.8682431578636169 -0.49613893032073975 0.0
89.0 87.0 97.0 -1.1102230246251565e-16 -1.0 0.0
88.0 88.0 97.0 -0.8944271802902222 -0.4472135901451111 0.0
89.0 87.0 98.0 -1.1102230246251565e-16 -1.0 0.0
88.0 88.0 98.0 -0.8944271802902222 -0.4472135901451111 0.0
89.0 87.0 99.0 -1.1102230246251565e-16 -1.0 0.0
88.0 88.0 99.0 -0.8944271802902222 -0.4472135901451111 0.0
89.0 87.0 100.0 -1.1102230246251565e-16 -1.0 0.0
88.0 88.0 100.0 -0.8944271802902222 -0.4472135901451111 0.0
89.0 87.0 101.0 -8.88178432935015e-17 -1.0 8.88178432935015e-17
88.0 88.0 101.0 -0.800000011920929 -0.6000000238418579 1.332267682489747e-16
89.0 88.0 102.0 -0.14744195342063904 -0.4423258602619171 0.8846517205238342
89.0 88.0 133.0 0.0 -0.7071067690849304 -0.7071067690849304
89.0 87.0 134.0 0.0 -1.0 -1.1102230246251565e-16
89.0 87.0 135.0 0.0 -0.8944271802902222 -0.4472135901451111
89.0 88.0 140.0 0.0 1.332267682489747e-16 1.0
89.0 89.0 92.0 -0.6000000238418579 0.800000011920929 -8.88178432935015e-17
89.0 89.0 93.0 -0.6396021246910095 0.42640143632888794 -0.6396021246910095
88.0 89.0 94.0 -1.0 3.70074332718459e-16 -2.9605948205663494e-16
89.0 89.0 93.0 -0.4472135901451111 1.9860272988175213e-16 -0.8944271802902222
88.0 89.0 95.0 -0.7171371579170227 -0.35856857895851135 -0.5976142883300781
89.0 89.0 102.0 -0.15617376565933228 -0.31234753131866455 0.9370425939559937
88.0 89.0 104.0 -0.8574929237365723 -0.5144957304000854 -7.61606696673499e-17
89.0 89.0 103.0 -0.27216553688049316 -0.6804138422012329 -0.6804138422012329
89.0 88.0 104.0 -1.268826370578278e-16 -1.0 -1.268826370578278e-16
89.0 88.0 105.0 -1.1102230246251565e-16 -1.0 0.0
88.0 89.0 105.0 -0.8944271802902222 -0.4472135901451111 0.0
89.0 88.0 106.0 -1.1102230246251565e-16 -1.0 0.0
88.0 89.0 106.0 -0.8944271802902222 -0.4472135901451111 0.0
89.0 88.0 107.0 -8.88178432935015e-17 -1.0 8.88178432935015e-17
88.0 89.0 107.0 -0.800000011920929 -0.6000000238418579 1.332267682489747e-16
89.0 89.0 108.0 -0.11704114824533463 -0.702246904373169 0.702246904373169
89.0 89.0 131.0 0.0 -0.7071067690849304 -0.7071067690849304
89.0 88.0 132.0 0.0 -1.0 -1.1102230246251565e-16
89.0 88.0 133.0 0.0 -0.8944271802902222 -0.4472135901451111
89.0 89.0 138.0 0.0 0.7071067690849304 0.7071067690849304
89.0 89.0 138.0 0.0 2.220446049250313e-16 1.0
89.0 89.0 139.0 0.0 1.0 2.220446049250313e-16
89.0 90.0 94.0 -0.4472135901451111 0.8944271802902222 -1.9860272988175213e-16
89.0 90.0 95.0 -0.6666666865348816 0.3333333432674408 -0.6666666865348816
88.0 90.0 96.0 -0.9486833214759827 0.3162277638912201 -2.1065001331610104e-16
89.0 90.0 95.0 -0.5144957304000854 1.904016774770972e-16 -0.8574929237365723
88.0 90.0 97.0 -0.8703882694244385 0.34815531969070435 -0.34815531969070435
89.0 89.0 102.0 -0.3244428336620331 -0.8111070990562439 0.4866642653942108
89.0 89.0 103.0 -0.3665083348751068 -0.8551861047744751 -0.3665083348751068
89.0 89.0 108.0 0.0 -0.8682431578636169 0.49613893032073975
89.0 89.0 109.0 -6.34413185289139e-17 -1.0 1.268826370578278e-16
89.0 90.0 110.0 -0.14002801477909088 -0.7001400589942932 0.7001400589942932
89.0 90.0 129.0 0.0 -0.7071067690849304 -0.7071067690849304
89.0 89.0 130.0 0.0 -1.0 -1.1102230246251565e-16
89.0 89.0 131.0 0.0 -0.8944271802902222 -0.4472135901451111
89.0 90.0 136.0 -0.48507124185562134 0.7276068925857544 0.48507124185562134
89.0 90.0 136.0 -0.3511234521865845 2.0790684417685879e-16 0.936329185962677
89.0 90.0 137.0 -0.3162277638912201 0.9486833214759827 2.1065001331610104e-16
89.0 91.0 96.0 -1.6653345369377348e-16 1.0 -1.6653345369377348e-16
89.0 91.0 97.0 -0.16439898312091827 0.986393928527832 0.0
89.0 91.0 98.0 -0.3162277638912201 0.9486833214759827 0.0
89.0 91.0 99.0 -0.6246950626373291 0.4685212969779968 -0.6246950626373291
88.0 91.0 100.0 -0.7071067690849304 0.7071067690849304 -1.5700924318127872e-16
89.0 91.0 99.0 -0.4472135901451111 1.9860272988175213e-16 -0.8944271802902222
88.0 91.0 101.0 -0.8571428656578064 0.2857142984867096 -0.4285714328289032
89.0 90.0 110.0 -0.3244428336620331 -0.8111070990562439 0.4866642653942108
89.0 90.0 111.0 -0.49613893032073975 -0.8682431578636169 0.0
89.0 90.0 112.0 0.0 -1.0 0.0
89.0 90.0 113.0 0.0 -1.0 0.0
89.0 90.0 114.0 0.0 -1.0 0.0
89.0 90.0 115.0 -3.700743525707937e-17 -1.0 0.0
89.0 90.0 116.0 -3.172065926445695e-17 -1.0 0.0
88.0 91.0 116.0 -0.7453559637069702 -0.596284806728363 0.2981424033641815
89.0 90.0 117.0 -1.4802974102831747e-16 -1.0 1.1102230246251565e-16
88.0 91.0 117.0 -0.800000011920929 -0.6000000238418579 1.332267682489747e-16
89.0 91.0 118.0 -0.27216553688049316 -0.6804138422012329 0.6804138422012329
88.0 91.0 126.0 -1.0 -8.88178432935015e-17 -8.88178432935015e-17
89.0 91.0 125.0 -0.18257418274879456 -0.3651483654975891 -0.9128709435462952
89.0 90.0 126.0 -3.700743525707937e-17 -1.0 -1.1102230246251565e-16
89.0 90.0 127.0 -1.1102230246251565e-16 -1.0 0.0
88.0 91.0 127.0 -1.0 -1.1102230246251565e-16 0.0
89.0 90.0 128.0 -1.1102230246251565e-16 -1.0 0.0
88.0 91.0 128.0 -1.0 -1.1102230246251565e-16 0.0
89.0 90.0 129.0 -6.620091216639901e-17 -0.8944271802902222 -0.4472135901451111
88.0 91.0 129.0 -0.7071067690849304 -5.2336415496667056e-17 -0.7071067690849304
89.0 91.0 134.0 -0.48507124185562134 0.7276068925857544 0.48507124185562134
89.0 91.0 134.0 -0.2747211158275604 9.150051575146408e-17 0.9615239500999451
89.0 91.0 135.0 -0.3162277638912201 0.9486833214759827 2.1065001331610104e-16
89.0 92.0 100.0 -0.4472135901451111 0.8944271802902222 -1.9860272988175213e-16
89.0 92.0 101.0 -0.6666666865348816 0.3333333432674408 -0.6666666865348816
88.0 92.0 102.0 -0.9486833214759827 0.3162277638912201 -2.1065001331610104e-16
89.0 92.0 101.0 -0.5144957304000854 1.904016774770972e-16 -0.8574929237365723
88.0 92.0 103.0 -0.8944271802902222 0.4472135901451111 0.0
88.0 92.0 104.0 -0.8944271802902222 0.4472135901451111 0.0
88.0 92.0 105.0 -0.8703882694244385 0.34815531969070435 -0.34815531969070435
89.0 91.0 118.0 -0.26726123690605164 -0.8017837405204773 0.5345224738121033
89.0 91.0 119.0 -0.49613893032073975 -0.8682431578636169 0.0
89.0 91.0 120.0 -3.172065926445695e-17 -1.0 0.0
88.0 92.0 120.0 -0.7453559637069702 -0.596284806728363 0.2981424033641815
89.0 91.0 121.0 -1.4802974102831747e-16 -1.0 1.1102230246251565e-16
88.0 92.0 121.0 -0.800000011920929 -0.6000000238418579 1.332267682489747e-16
89.0 92.0 122.0 -0.2857142984867096 -0.4285714328289032 0.8571428656578064
88.0 92.0 126.0 -1.0 1.4802974102831747e-16 -2.220446049250313e-16
89.0 92.0 125.0 -0.4472135901451111 9.930136494087607e-17 -0.8944271802902222
88.0 92.0 127.0 -1.0 1.1102230246251565e-16 0.0
88.0 92.0 128.0 -1.0 1.1102230246251565e-16 0.0
88.0 92.0 129.0 -0.8574929237365723 1.142410011923024e-16 -0.5144957304000854
89.0 92.0 134.0 0.0 1.332267682489747e-16 1.0
89.0 93.0 102.0 -1.6653345369377348e-16 1.0 -1.6653345369377348e-16
89.0 93.0 103.0 -1.1102230246251565e-16 1.0 0.0
89.0 93.0 104.0 -1.1102230246251565e-16 1.0 0.0
89.0 93.0 105.0 -1.268826370578278e-16 1.0 0.0
89.0 93.0 106.0 0.0 1.0 0.0
89.0 93.0 107.0 0.0 1.0 0.0
89.0 93.0 108.0 0.0 1.0 0.0
89.0 93.0 109.0 -0.5144957304000854 0.5144957304000854 -0.6859943270683289
88.0 93.0 110.0 -0.7071067690849304 0.7071067690849304 -1.5700924318127872e-16
89.0 93.0 109.0 -0.16439898312091827 2.1902345016041203e-16 -0.986393928527832
88.0 93.0 111.0 -0.8703882694244385 0.34815531969070435 -0.34815531969070435
89.0 93.0 122.0 -0.16439898312091827 0.0 0.986393928527832
89.0 93.0 126.0 -0.6000000238418579 0.800000011920929 -8.88178432935015e-17
89.0 93.0 127.0 -0.4472135901451111 0.8944271802902222 0.0
89.0 93.0 128.0 -0.4472135901451111 0.8944271802902222 0.0
89.0 93.0 129.0 -0.12403473258018494 0.9922778606414795 0.0
89.0 93.0 130.0 -0.1961161345243454 0.9805806875228882 0.0
89.0 93.0 131.0 0.0 1.0 0.0
89.0 93.0 132.0 0.0 1.0 0.0
89.0 93.0 133.0 0.0 1.0 2.220446049250313e-16
89.0 94.0 110.0 -1.6653345369377348e-16 1.0 -1.1102230246251565e-16
89.0 94.0 111.0 -0.16439898312091827 0.986393928527832 0.0
89.0 94.0 112.0 -0.3162277638912201 0.9486833214759827 0.0
89.0 94.0 113.0 -0.4472135901451111 0.8944271802902222 0.0
89.0 94.0 114.0 -0.4472135901451111 0.8944271802902222 0.0
89.0 94.0 115.0 -0.4472135901451111 0.8944271802902222 0.0
89.0 94.0 116.0 -0.4472135901451111 0.8944271802902222 0.0
89.0 94.0 117.0 -0.6246950626373291 0.4685212969779968 -0.6246950626373291
88.0 94.0 118.0 -0.7071067690849304 0.7071067690849304 -1.5700924318127872e-16
89.0 94.0 117.0 -0.5144957304000854 1.904016774770972e-16 -0.8574929237365723
88.0 94.0 119.0 -0.8571428656578064 0.2857142984867096 -0.4285714328289032
89.0 94.0 122.0 -0.3162277638912201 0.0 0.9486833214759827
89.0 95.0 118.0 -1.6653345369377348e-16 1.0 -1.6653345369377348e-16
89.0 95.0 119.0 -0.5570859909057617 0.3713906705379486 -0.7427813410758972
88.0 95.0 120.0 -0.9486833214759827 0.3162277638912201 -2.1065001331610104e-16
89.0 95.0 119.0 -0.16439898312091827 2.1902345016041203e-16 -0.986393928527832
88.0 95.0 121.0 -0.9284766912460327 0.3713906705379486 8.246529471244126e-17
89.0 95.0 122.0 -0.4472135901451111 6.620091216639901e-17 0.8944271802902222
89.0 96.0 120.0 -1.6653345369377348e-16 1.0 -1.1102230246251565e-16
89.0 96.0 121.0 -2.220446049250313e-16 1.0 3.3306690738754696e-16
89.0 78.0 144.0 -1.0 -8.88178432935015e-17 -8.88178432935015e-17
90.0 78.0 143.0 -0.14744195342063904 -0.4423258602619171 -0.8846517205238342
90.0 77.0 144.0 -0.5144957304000854 -0.8574929237365723 -1.142410011923024e-16
90.0 77.0 145.0 -0.4472135901451111 -0.8944271802902222 6.620091216639901e-17
89.0 78.0 145.0 -1.0 -5.551115123125783e-17 1.6653345369377348e-16
90.0 78.0 146.0 -0.1373605579137802 -0.5494422316551208 0.8241633772850037
89.0 79.0 144.0 -1.0 0.0 -1.850371663592295e-16
90.0 79.0 143.0 -0.18257418274879456 -0.3651483654975891 -0.9128709435462952
89.0 79.0 145.0 -1.0 0.0 1.332267682489747e-16
90.0 79.0 146.0 -0.3162277638912201 0.0 0.9486833214759827
90.0 80.0 141.0 0.0 -0.4472135901451111 -0.8944271802902222
90.0 79.0 142.0 0.0 -1.0 -1.1102230246251565e-16
90.0 79.0 143.0 -7.061004291165776e-17 -0.847998321056366 -0.5299989581108093
89.0 80.0 144.0 -0.8451542258262634 -0.16903084516525269 0.5070925354957581
89.0 80.0 145.0 -1.0 0.0 1.332267682489747e-16
90.0 80.0 146.0 -0.3162277638912201 0.0 0.9486833214759827
90.0 81.0 141.0 0.0 -0.4472135901451111 -0.8944271802902222
89.0 81.0 144.0 -0.8574929237365723 0.0 0.5144957304000854
89.0 81.0 145.0 -1.0 0.0 1.332267682489747e-16
90.0 81.0 146.0 -0.3162277638912201 0.0 0.9486833214759827
90.0 82.0 139.0 0.0 -0.4472135901451111 -0.8944271802902222
90.0 81.0 140.0 0.0 -1.0 -1.1102230246251565e-16
90.0 81.0 141.0 0.0 -0.8944271802902222 -0.4472135901451111
89.0 82.0 144.0 -0.800000011920929 1.332267682489747e-16 0.6000000238418579
89.0 82.0 145.0 -1.0 1.332267682489747e-16 8.88178432935015e-17
90.0 82.0 146.0 -0.2747211158275604 9.150051575146408e-17 0.9615239500999451
90.0 83.0 139.0 0.0 -0.49613893032073975 -0.8682431578636169
90.0 83.0 144.0 -0.40824830532073975 0.8164966106414795 0.40824830532073975
90.0 83.0 144.0 -0.24253562092781067 1.0770745225832575e-16 0.9701424837112427
90.0 83.0 145.0 -0.4472135901451111 0.8944271802902222 2.97904108057518e-16
90.0 84.0 137.0 0.13018891215324402 -0.39056673645973206 -0.9113223552703857
90.0 83.0 138.0 8.88178432935015e-17 -1.0 -8.88178432935015e-17
90.0 83.0 139.0 3.3100456083199505e-17 -0.8944271802902222 -0.4472135901451111
90.0 84.0 144.0 0.0 0.0 1.0
90.0 85.0 137.0 0.0 -0.5144957304000854 -0.8574929237365723
89.0 85.0 142.0 -0.7844645380973816 0.1961161345243454 0.588348388671875
89.0 85.0 143.0 -0.9284766912460327 0.3713906705379486 8.246529471244126e-17
90.0 85.0 144.0 -0.39391928911209106 5.831177302712557e-17 0.9191450476646423
90.0 86.0 135.0 0.0 -0.4472135901451111 -0.8944271802902222
90.0 85.0 136.0 0.0 -1.0 -1.1102230246251565e-16
90.0 85.0 137.0 0.0 -0.8944271802902222 -0.4472135901451111
90.0 86.0 142.0 -1.332267682489747e-16 0.800000011920929 0.6000000238418579
90.0 86.0 142.0 0.0 1.4802974102831747e-16 1.0
90.0 86.0 143.0 -2.220446049250313e-16 1.0 3.3306690738754696e-16
89.0 87.0 80.0 -1.0 -8.88178432935015e-17 -8.88178432935015e-17
90.0 87.0 79.0 -0.3665083348751068 -0.3665083348751068 -0.8551861047744751
90.0 86.0 80.0 -0.4472135901451111 -0.8944271802902222 -9.930136494087607e-17
90.0 86.0 81.0 -0.5299989581108093 -0.847998321056366 9.414672608802532e-17
89.0 87.0 81.0 -1.0 -5.551115123125783e-17 1.6653345369377348e-16
90.0 87.0 82.0 -0.3244428336620331 -0.4866642653942108 0.8111070990562439
89.0 87.0 88.0 -1.0 -7.401487051415874e-17 -1.1102230246251565e-16
90.0 87.0 87.0 -0.27216553688049316 -0.6804138422012329 -0.6804138422012329
90.0 86.0 88.0 -1.268826370578278e-16 -1.0 -1.268826370578278e-16
90.0 86.0 89.0 -1.1102230246251565e-16 -1.0 0.0
89.0 87.0 89.0 -1.0 -1.1102230246251565e-16 0.0
90.0 86.0 90.0 -1.1102230246251565e-16 -1.0 0.0
89.0 87.0 90.0 -1.0 -1.1102230246251565e-16 0.0
90.0 86.0 91.0 -1.1102230246251565e-16 -1.0 0.0
89.0 87.0 91.0 -1.0 -1.332267682489747e-16 0.0
90.0 86.0 92.0 -1.1102230246251565e-16 -1.0 0.0
89.0 87.0 92.0 -0.8682431578636169 -0.49613893032073975 0.0
90.0 86.0 93.0 -1.1102230246251565e-16 -1.0 0.0
89.0 87.0 93.0 -0.8944271802902222 -0.4472135901451111 0.0
90.0 86.0 94.0 -1.1102230246251565e-16 -1.0 0.0
89.0 87.0 94.0 -0.8944271802902222 -0.4472135901451111 0.0
90.0 86.0 95.0 -8.88178432935015e-17 -1.0 8.88178432935015e-17
89.0 87.0 95.0 -0.800000011920929 -0.6000000238418579 1.332267682489747e-16
90.0 87.0 96.0 -0.11704114824533463 -0.702246904373169 0.702246904373169
90.0 87.0 135.0 0.0 -0.4472135901451111 -0.8944271802902222
89.0 87.0 140.0 -0.7844645380973816 0.1961161345243454 0.588348388671875
89.0 87.0 141.0 -0.9284766912460327 0.3713906705379486 8.246529471244126e-17
90.0 87.0 142.0 -0.39391928911209106 5.831177302712557e-17 0.9191450476646423
89.0 88.0 80.0 -1.0 1.4802974102831747e-16 -2.220446049250313e-16
90.0 88.0 79.0 -0.5144957304000854 1.142410011923024e-16 -0.8574929237365723
89.0 88.0 81.0 -1.0 1.332267682489747e-16 8.88178432935015e-17
90.0 88.0 82.0 -0.4472135901451111 6.620091216639901e-17 0.8944271802902222
89.0 88.0 84.0 -1.0 0.0 -1.1102230246251565e-16
90.0 88.0 83.0 -0.40824830532073975 -0.40824830532073975 -0.8164966106414795
90.0 87.0 84.0 -0.5144957304000854 -0.8574929237365723 -1.142410011923024e-16
90.0 87.0 85.0 -0.4472135901451111 -0.8944271802902222 0.0
89.0 88.0 85.0 -1.0 0.0 0.0
90.0 87.0 86.0 -0.4472135901451111 -0.8944271802902222 0.0
89.0 88.0 86.0 -1.0 0.0 0.0
90.0 87.0 87.0 -0.4285714328289032 -0.8571428656578064 -0.2857142984867096
89.0 88.0 87.0 -1.0 6.34413185289139e-17 0.0
89.0 88.0 88.0 -1.0 8.88178432935015e-17 0.0
89.0 88.0 89.0 -1.0 1.268826370578278e-16 0.0
89.0 88.0 90.0 -1.0 0.0 0.0
89.0 88.0 91.0 -0.6509445309638977 -0.39056673645973206 -0.6509445309638977
90.0 87.0 96.0 0.0 -0.8682431578636169 0.49613893032073975
90.0 87.0 97.0 0.0 -1.0 0.0
90.0 87.0 98.0 0.0 -1.0 0.0
90.0 87.0 99.0 0.0 -1.0 0.0
90.0 87.0 100.0 0.0 -1.0 0.0
90.0 87.0 101.0 0.0 -1.0 1.1102230246251565e-16
90.0 88.0 102.0 0.0 -0.7071067690849304 0.7071067690849304
90.0 88.0 133.0 0.0 -0.7071067690849304 -0.7071067690849304
90.0 87.0 134.0 0.0 -1.0 -1.1102230246251565e-16
90.0 87.0 135.0 0.0 -0.8944271802902222 -0.4472135901451111
90.0 88.0 140.0 -1.332267682489747e-16 0.800000011920929 0.6000000238418579
90.0 88.0 140.0 0.0 2.220446049250313e-16 1.0
90.0 88.0 141.0 -2.220446049250313e-16 1.0 3.3306690738754696e-16
90.0 89.0 80.0 -1.6653345369377348e-16 1.0 -1.6653345369377348e-16
90.0 89.0 81.0 -2.220446049250313e-16 1.0 4.440892098500626e-16
90.0 89.0 84.0 -0.4472135901451111 0.8944271802902222 -1.9860272988175213e-16
90.0 89.0 85.0 -0.4472135901451111 0.8944271802902222 0.0
90.0 89.0 86.0 -0.4472135901451111 0.8944271802902222 0.0
90.0 89.0 87.0 -0.4472135901451111 0.8944271802902222 0.0
90.0 89.0 88.0 -0.4472135901451111 0.8944271802902222 0.0
90.0 89.0 89.0 -0.6396021246910095 0.42640143632888794 -0.6396021246910095
89.0 89.0 90.0 -1.0 3.70074332718459e-16 -2.9605948205663494e-16
90.0 89.0 89.0 -0.5144957304000854 1.904016774770972e-16 -0.8574929237365723
89.0 89.0 91.0 -0.986393928527832 0.16439898312091827 0.0
89.0 89.0 92.0 -0.9899494647979736 0.1414213627576828 0.0
89.0 89.0 93.0 -0.8571428656578064 0.2857142984867096 -0.4285714328289032
90.0 88.0 102.0 -3.3100456083199505e-17 -0.8944271802902222 0.4472135901451111
89.0 89.0 102.0 -0.8111070990562439 -0.4866642653942108 0.3244428336620331
90.0 88.0 103.0 -6.34413185289139e-17 -1.0 0.0
89.0 89.0 103.0 -0.5144957304000854 -0.6859943270683289 -0.5144957304000854
90.0 88.0 104.0 -4.440892164675075e-17 -1.0 0.0
90.0 88.0 105.0 0.0 -1.0 0.0
90.0 88.0 106.0 0.0 -1.0 0.0
90.0 88.0 107.0 0.0 -1.0 1.1102230246251565e-16
90.0 89.0 108.0 0.0 -0.7071067690849304 0.7071067690849304
90.0 89.0 131.0 0.0 -0.7071067690849304 -0.7071067690849304
90.0 88.0 132.0 0.0 -1.0 -1.1102230246251565e-16
90.0 88.0 133.0 0.0 -0.8944271802902222 -0.4472135901451111
90.0 89.0 138.0 0.0 0.7071067690849304 0.7071067690849304
90.0 89.0 138.0 0.0 1.332267682489747e-16 1.0
90.0 89.0 139.0 0.0 1.0 2.220446049250313e-16
90.0 90.0 90.0 -1.6653345369377348e-16 1.0 -1.6653345369377348e-16
90.0 90.0 91.0 -0.1961161345243454 0.9805806875228882 0.0
90.0 90.0 92.0 -0.2747211158275604 0.9615239500999451 0.0
90.0 90.0 93.0 -0.6666666865348816 0.3333333432674408 -0.6666666865348816
89.0 90.0 94.0 -0.9486833214759827 0.3162277638912201 -2.1065001331610104e-16
90.0 90.0 93.0 -0.5144957304000854 1.904016774770972e-16 -0.8574929237365723
89.0 90.0 95.0 -0.8703882694244385 0.34815531969070435 -0.34815531969070435
90.0 89.0 108.0 0.0 -0.8944271802902222 0.4472135901451111
90.0 89.0 109.0 -3.700743525707937e-17 -1.0 0.0
90.0 89.0 110.0 -3.172065926445695e-17 -1.0 0.0
89.0 90.0 110.0 -0.7453559637069702 -0.596284806728363 0.2981424033641815
90.0 89.0 111.0 -8.88178432935015e-17 -1.0 8.88178432935015e-17
89.0 90.0 111.0 -0.800000011920929 -0.6000000238418579 1.332267682489747e-16
90.0 90.0 112.0 -0.11704114824533463 -0.702246904373169 0.702246904373169
90.0 90.0 129.0 0.0 -0.7071067690849304 -0.7071067690849304
90.0 89.0 130.0 0.0 -1.0 -1.1102230246251565e-16
90.0 89.0 131.0 0.0 -0.8944271802902222 -0.4472135901451111
89.0 90.0 136.0 -0.8017837405204773 0.26726123690605164 0.5345224738121033
89.0 90.0 137.0 -0.9284766912460327 0.3713906705379486 8.246529471244126e-17
90.0 90.0 138.0 -0.3511234521865845 7.796506822068327e-17 0.936329185962677
90.0 91.0 94.0 -1.6653345369377348e-16 1.0 -1.6653345369377348e-16
90.0 91.0 95.0 -0.16439898312091827 0.986393928527832 0.0
90.0 91.0 96.0 -0.3162277638912201 0.9486833214759827 0.0
90.0 91.0 97.0 -0.6246950626373291 0.4685212969779968 -0.6246950626373291
89.0 91.0 98.0 -0.7071067690849304 0.7071067690849304 -1.5700924318127872e-16
90.0 91.0 97.0 -0.5144957304000854 1.904016774770972e-16 -0.8574929237365723
89.0 91.0 99.0 -0.8571428656578064 0.2857142984867096 -0.4285714328289032
90.0 90.0 112.0 0.0 -0.8682431578636169 0.49613893032073975
90.0 90.0 113.0 0.0 -1.0 0.0
90.0 90.0 114.0 0.0 -1.0 0.0
90.0 90.0 115.0 0.0 -1.0 0.0
90.0 90.0 116.0 0.0 -1.0 0.0
90.0 90.0 117.0 -3.700743525707937e-17 -1.0 0.0
90.0 90.0 118.0 -3.172065926445695e-17 -1.0 0.0
89.0 91.0 118.0 -0.7453559637069702 -0.596284806728363 0.2981424033641815
90.0 90.0 119.0 -8.88178432935015e-17 -1.0 8.88178432935015e-17
89.0 91.0 119.0 -0.800000011920929 -0.6000000238418579 1.332267682489747e-16
90.0 91.0 120.0 -0.11704114824533463 -0.702246904373169 0.702246904373169
90.0 91.0 125.0 -0.10050377994775772 -0.703526496887207 -0.703526496887207
90.0 90.0 126.0 -9.51619744846484e-17 -1.0 -1.268826370578278e-16
90.0 90.0 127.0 0.0 -1.0 0.0
90.0 90.0 128.0 0.0 -1.0 0.0
90.0 90.0 129.0 0.0 -0.8944271802902222 -0.4472135901451111
89.0 91.0 134.0 -0.7844645380973816 0.1961161345243454 0.588348388671875
89.0 91.0 135.0 -0.9284766912460327 0.3713906705379486 8.246529471244126e-17
90.0 91.0 136.0 -0.6000000238418579 1.77635686587003e-16 0.800000011920929
90.0 91.0 136.0 -0.6246950626373291 0.6246950626373291 0.4685212969779968
90.0 91.0 137.0 -0.4472135901451111 0.8944271802902222 2.97904108057518e-16
90.0 92.0 98.0 -1.6653345369377348e-16 1.0 -1.6653345369377348e-16
90.0 92.0 99.0 -0.5570859909057617 0.3713906705379486 -0.7427813410758972
89.0 92.0 100.0 -0.9486833214759827 0.3162277638912201 -2.1065001331610104e-16
90.0 92.0 99.0 -0.16439898312091827 2.1902345016041203e-16 -0.986393928527832
89.0 92.0 101.0 -0.8703882694244385 0.34815531969070435 -0.34815531969070435
90.0 91.0 120.0 0.0 -0.8682431578636169 0.49613893032073975
90.0 91.0 121.0 -3.700743525707937e-17 -1.0 0.0
90.0 91.0 122.0 -3.172065926445695e-17 -1.0 0.0
89.0 92.0 122.0 -0.8846517205238342 -0.14744195342063904 0.4423258602619171
90.0 91.0 123.0 -1.332267682489747e-16 -1.0 0.0
89.0 92.0 123.0 -1.0 -1.1102230246251565e-16 0.0
90.0 91.0 124.0 -0.49613893032073975 -0.8682431578636169 0.0
89.0 92.0 124.0 -1.0 -1.1102230246251565e-16 0.0
90.0 91.0 125.0 -0.4285714328289032 -0.8571428656578064 -0.2857142984867096
89.0 92.0 125.0 -0.7071067690849304 -3.925231079531968e-17 -0.7071067690849304
90.0 92.0 134.0 -0.40824830532073975 0.8164966106414795 0.40824830532073975
90.0 92.0 134.0 -0.3162277638912201 2.1065001331610104e-16 0.9486833214759827
90.0 92.0 135.0 -0.4472135901451111 0.8944271802902222 2.97904108057518e-16
90.0 93.0 100.0 -1.6653345369377348e-16 1.0 -1.1102230246251565e-16
90.0 93.0 101.0 -1.268826370578278e-16 1.0 0.0
90.0 93.0 102.0 0.0 1.0 0.0
90.0 93.0 103.0 0.0 1.0 0.0
90.0 93.0 104.0 0.0 1.0 0.0
90.0 93.0 105.0 -0.1961161345243454 0.9805806875228882 0.0
90.0 93.0 106.0 -0.2747211158275604 0.9615239500999451 0.0
90.0 93.0 107.0 -0.4472135901451111 0.8944271802902222 0.0
90.0 93.0 108.0 -0.4472135901451111 0.8944271802902222 0.0
90.0 93.0 109.0 -0.22941572964191437 0.6882472038269043 -0.6882472038269043
90.0 93.0 109.0 -0.24253562092781067 2.154149045166515e-16 -0.9701424837112427
89.0 93.0 122.0 -0.8574929237365723 0.0 0.5144957304000854
89.0 93.0 123.0 -1.0 0.0 0.0
89.0 93.0 124.0 -1.0 1.268826370578278e-16 0.0
89.0 93.0 125.0 -0.986393928527832 0.16439898312091827 0.0
89.0 93.0 126.0 -0.9899494647979736 0.1414213627576828 0.0
89.0 93.0 127.0 -0.8944271802902222 0.4472135901451111 0.0
89.0 93.0 128.0 -0.8944271802902222 0.4472135901451111 0.0
89.0 93.0 129.0 -0.8574929237365723 0.5144957304000854 7.61606696673499e-17
90.0 93.0 130.0 -0.5144957304000854 1.904016774770972e-16 0.8574929237365723
90.0 93.0 130.0 -0.6859943270683289 0.5144957304000854 0.5144957304000854
90.0 93.0 131.0 -0.4472135901451111 0.8944271802902222 0.0
90.0 93.0 132.0 -0.4472135901451111 0.8944271802902222 0.0
90.0 93.0 133.0 -0.3162277638912201 0.9486833214759827 2.1065001331610104e-16
90.0 94.0 110.0 -0.5547001957893372 0.8320503234863281 -3.079204579472573e-16
90.0 94.0 111.0 -0.6246950626373291 0.4685212969779968 -0.6246950626373291
89.0 94.0 112.0 -0.7071067690849304 0.7071067690849304 -1.5700924318127872e-16
90.0 94.0 111.0 -0.5144957304000854 1.904016774770972e-16 -0.8574929237365723
89.0 94.0 113.0 -0.8944271802902222 0.4472135901451111 0.0
89.0 94.0 114.0 -0.8944271802902222 0.4472135901451111 0.0
89.0 94.0 115.0 -0.8944271802902222 0.4472135901451111 0.0
89.0 94.0 116.0 -0.8944271802902222 0.4472135901451111 0.0
89.0 94.0 117.0 -0.8703882694244385 0.34815531969070435 -0.34815531969070435
89.0 94.0 122.0 -0.800000011920929 1.332267682489747e-16 0.6000000238418579
89.0 94.0 123.0 -1.0 2.220446049250313e-16 1.332267682489747e-16
90.0 94.0 124.0 -0.5812382102012634 1.806851243111267e-16 0.8137334585189819
90.0 94.0 124.0 -0.5570859909057617 0.7427813410758972 0.3713906705379486
90.0 94.0 125.0 -0.4472135901451111 0.8944271802902222 0.0
90.0 94.0 126.0 -0.4472135901451111 0.8944271802902222 0.0
90.0 94.0 127.0 -0.1414213627576828 0.9899494647979736 0.0
90.0 94.0 128.0 -0.16439898312091827 0.986393928527832 0.0
90.0 94.0 129.0 -2.220446049250313e-16 1.0 4.440892098500626e-16
90.0 95.0 112.0 -1.6653345369377348e-16 1.0 -1.6653345369377348e-16
90.0 95.0 113.0 -1.1102230246251565e-16 1.0 0.0
90.0 95.0 114.0 -1.1102230246251565e-16 1.0 0.0
90.0 95.0 115.0 -1.1102230246251565e-16 1.0 0.0
90.0 95.0 116.0 -1.1102230246251565e-16 1.0 0.0
90.0 95.0 117.0 -0.16439898312091827 0.986393928527832 0.0
90.0 95.0 118.0 -0.3162277638912201 0.9486833214759827 0.0
90.0 95.0 119.0 -0.22941572964191437 0.6882472038269043 -0.6882472038269043
90.0 95.0 119.0 -0.24253562092781067 2.154149045166515e-16 -0.9701424837112427
90.0 95.0 122.0 -0.40824830532073975 0.8164966106414795 0.40824830532073975
90.0 95.0 122.0 -0.3162277638912201 2.1065001331610104e-16 0.9486833214759827
90.0 95.0 123.0 -0.4472135901451111 0.8944271802902222 2.97904108057518e-16
90.0 96.0 120.0 -0.5547001957893372 0.8320503234863281 -3.079204579472573e-16
90.0 96.0 121.0 -0.3162277638912201 0.9486833214759827 2.1065001331610104e-16
90.0 77.0 144.0 -0.8574929237365723 -0.5144957304000854 -7.61606696673499e-17
91.0 77.0 143.0 -0.15617376565933228 -0.31234753131866455 -0.9370425939559937
91.0 76.0 144.0 -3.700743525707937e-17 -1.0 -1.1102230246251565e-16
91.0 76.0 145.0 -1.332267682489747e-16 -1.0 8.88178432935015e-17
90.0 77.0 145.0 -0.800000011920929 -0.6000000238418579 1.332267682489747e-16
91.0 77.0 146.0 -0.24077171087265015 -0.4815434217453003 0.8427009582519531
91.0 78.0 143.0 0.0 0.0 -1.0
91.0 78.0 146.0 -0.16439898312091827 0.0 0.986393928527832
91.0 79.0 143.0 0.0 -0.4472135901451111 -0.8944271802902222
91.0 79.0 146.0 -0.16439898312091827 0.0 0.986393928527832
91.0 80.0 141.0 0.0 -0.4472135901451111 -0.8944271802902222
91.0 79.0 142.0 0.0 -1.0 -1.1102230246251565e-16
91.0 79.0 143.0 0.0 -0.8944271802902222 -0.4472135901451111
91.0 80.0 146.0 -0.2747211158275604 0.0 0.9615239500999451
91.0 81.0 141.0 0.0 -0.4472135901451111 -0.8944271802902222
91.0 81.0 146.0 0.0 0.0 1.0
91.0 82.0 139.0 0.0 -0.4472135901451111 -0.8944271802902222
91.0 81.0 140.0 0.0 -1.0 -1.1102230246251565e-16
91.0 81.0 141.0 0.0 -0.8944271802902222 -0.4472135901451111
91.0 82.0 146.0 0.0 0.0 1.0
91.0 83.0 139.0 0.0 0.0 -1.0
90.0 83.0 144.0 -0.7844645380973816 0.1961161345243454 0.588348388671875
90.0 83.0 145.0 -0.9284766912460327 0.3713906705379486 8.246529471244126e-17
91.0 83.0 146.0 -0.39391928911209106 5.831177302712557e-17 0.9191450476646423
91.0 84.0 138.0 0.800000011920929 -0.6000000238418579 -1.332267682489747e-16
91.0 84.0 139.0 0.8111070990562439 -0.4866642653942108 -0.3244428336620331
91.0 84.0 139.0 0.13608276844024658 -0.27216553688049316 -0.9525793194770813
91.0 84.0 144.0 -1.332267682489747e-16 0.800000011920929 0.6000000238418579
91.0 84.0 144.0 0.0 1.268826370578278e-16 1.0
91.0 84.0 145.0 -2.220446049250313e-16 1.0 3.3306690738754696e-16
91.0 85.0 137.0 0.0 -0.7071067690849304 -0.7071067690849304
91.0 84.0 138.0 0.39391928911209106 -0.9191450476646423 -8.746765292324345e-17
91.0 84.0 139.0 0.3244428336620331 -0.8111070990562439 -0.4866642653942108
91.0 85.0 144.0 0.0 1.268826370578278e-16 1.0
90.0 86.0 80.0 -0.8137334585189819 -0.5812382102012634 -1.0324864435419951e-16
91.0 86.0 79.0 -0.27216553688049316 -0.6804138422012329 -0.6804138422012329
91.0 85.0 80.0 -1.268826370578278e-16 -1.0 -1.268826370578278e-16
91.0 85.0 81.0 -8.88178432935015e-17 -1.0 8.88178432935015e-17
90.0 86.0 81.0 -0.8320503234863281 -0.5547001957893372 1.2316818582588088e-16
91.0 86.0 82.0 -0.10050377994775772 -0.703526496887207 0.703526496887207
91.0 86.0 135.0 0.0 -0.4472135901451111 -0.8944271802902222
91.0 85.0 136.0 0.0 -1.0 -1.1102230246251565e-16
91.0 85.0 137.0 0.0 -0.8944271802902222 -0.4472135901451111
91.0 86.0 142.0 -0.48507124185562134 0.7276068925857544 0.48507124185562134
91.0 86.0 142.0 -0.2747211158275604 9.150051575146408e-17 0.9615239500999451
91.0 86.0 143.0 -0.3162277638912201 0.9486833214759827 2.1065001331610104e-16
90.0 87.0 78.0 -1.0 -8.88178432935015e-17 -8.88178432935015e-17
91.0 87.0 77.0 -0.4285714328289032 -0.2857142984867096 -0.8571428656578064
91.0 86.0 78.0 -0.5144957304000854 -0.8574929237365723 -1.142410011923024e-16
91.0 86.0 79.0 -0.4285714328289032 -0.8571428656578064 -0.2857142984867096
90.0 87.0 79.0 -0.5144957304000854 -0.5144957304000854 -0.6859943270683289
91.0 86.0 82.0 -2.7541243192749073e-17 -0.8682431578636169 0.49613893032073975
90.0 87.0 82.0 -0.8846517205238342 -0.14744195342063904 0.4423258602619171
91.0 86.0 83.0 -1.1102230246251565e-16 -1.0 0.0
90.0 87.0 83.0 -1.0 -1.332267682489747e-16 0.0
91.0 86.0 84.0 -1.1102230246251565e-16 -1.0 0.0
90.0 87.0 84.0 -0.8682431578636169 -0.49613893032073975 0.0
91.0 86.0 85.0 -1.332267682489747e-16 -1.0 0.0
90.0 87.0 85.0 -0.8944271802902222 -0.4472135901451111 0.0
91.0 86.0 86.0 -0.49613893032073975 -0.8682431578636169 0.0
90.0 87.0 86.0 -0.8944271802902222 -0.4472135901451111 0.0
91.0 86.0 87.0 -0.39391928911209106 -0.9191450476646423 0.0
90.0 87.0 87.0 -0.5144957304000854 -0.6859943270683289 -0.5144957304000854
91.0 86.0 88.0 -0.5144957304000854 -0.8574929237365723 0.0
91.0 86.0 89.0 -0.49613893032073975 -0.8682431578636169 0.0
91.0 86.0 90.0 0.0 -1.0 0.0
91.0 86.0 91.0 0.0 -1.0 0.0
91.0 86.0 92.0 0.0 -1.0 0.0
91.0 86.0 93.0 0.0 -1.0 0.0
91.0 86.0 94.0 0.0 -1.0 0.0
91.0 86.0 95.0 0.0 -1.0 1.1102230246251565e-16
91.0 87.0 96.0 0.0 -0.7071067690849304 0.7071067690849304
91.0 87.0 135.0 0.0 -0.4472135901451111 -0.8944271802902222
91.0 87.0 142.0 0.0 1.332267682489747e-16 1.0
90.0 88.0 78.0 -1.0 1.4802974102831747e-16 -2.220446049250313e-16
91.0 88.0 77.0 -0.5144957304000854 1.142410011923024e-16 -0.8574929237365723
90.0 88.0 79.0 -0.8574929237365723 1.142410011923024e-16 -0.5144957304000854
90.0 88.0 82.0 -0.800000011920929 1.332267682489747e-16 0.6000000238418579
90.0 88.0 83.0 -0.7171371579170227 -0.35856857895851135 -0.5976142883300781
91.0 87.0 96.0 0.0 -0.8944271802902222 0.4472135901451111
91.0 87.0 97.0 0.0 -1.0 0.0
91.0 87.0 98.0 0.0 -1.0 0.0
91.0 87.0 99.0 0.0 -1.0 0.0
91.0 87.0 100.0 0.0 -1.0 0.0
91.0 87.0 101.0 0.0 -1.0 1.1102230246251565e-16
91.0 88.0 102.0 0.0 -0.7071067690849304 0.7071067690849304
91.0 88.0 133.0 0.0 -0.7071067690849304 -0.7071067690849304
91.0 87.0 134.0 0.0 -1.0 -1.1102230246251565e-16
91.0 87.0 135.0 0.0 -0.8944271802902222 -0.4472135901451111
91.0 88.0 140.0 0.0 0.7071067690849304 0.7071067690849304
91.0 88.0 140.0 0.0 2.220446049250313e-16 1.0
91.0 88.0 141.0 0.0 1.0 2.220446049250313e-16
91.0 89.0 78.0 -1.6653345369377348e-16 1.0 -1.6653345369377348e-16
91.0 89.0 79.0 -1.268826370578278e-16 1.0 0.0
91.0 89.0 80.0 0.0 1.0 0.0
91.0 89.0 81.0 0.0 1.0 0.0
91.0 89.0 82.0 -1.268826370578278e-16 1.0 0.0
91.0 89.0 83.0 -0.5570859909057617 0.3713906705379486 -0.7427813410758972
90.0 89.0 84.0 -0.9486833214759827 0.3162277638912201 -2.1065001331610104e-16
91.0 89.0 83.0 -0.16439898312091827 2.1902345016041203e-16 -0.986393928527832
90.0 89.0 85.0 -0.8944271802902222 0.4472135901451111 0.0
90.0 89.0 86.0 -0.8944271802902222 0.4472135901451111 0.0
90.0 89.0 87.0 -0.8944271802902222 0.4472135901451111 0.0
90.0 89.0 88.0 -0.8944271802902222 0.4472135901451111 0.0
90.0 89.0 89.0 -0.8703882694244385 0.34815531969070435 -0.34815531969070435
91.0 88.0 102.0 0.0 -0.8944271802902222 0.4472135901451111
91.0 88.0 103.0 0.0 -1.0 0.0
91.0 88.0 104.0 0.0 -1.0 0.0
91.0 88.0 105.0 0.0 -1.0 0.0
91.0 88.0 106.0 0.0 -1.0 0.0
91.0 88.0 107.0 0.0 -1.0 1.1102230246251565e-16
91.0 89.0 108.0 0.0 -0.7071067690849304 0.7071067690849304
91.0 89.0 131.0 0.0 -0.7071067690849304 -0.7071067690849304
91.0 88.0 132.0 0.0 -1.0 -1.1102230246251565e-16
91.0 88.0 133.0 0.0 -0.8944271802902222 -0.4472135901451111
91.0 89.0 138.0 -0.48507124185562134 0.7276068925857544 0.48507124185562134
91.0 89.0 138.0 -0.2747211158275604 9.150051575146408e-17 0.9615239500999451
91.0 89.0 139.0 -0.3162277638912201 0.9486833214759827 2.1065001331610104e-16
91.0 90.0 84.0 -1.6653345369377348e-16 1.0 -1.1102230246251565e-16
91.0 90.0 85.0 -1.1102230246251565e-16 1.0 0.0
91.0 90.0 86.0 -1.1102230246251565e-16 1.0 0.0
91.0 90.0 87.0 -1.1102230246251565e-16 1.0 0.0
91.0 90.0 88.0 -1.1102230246251565e-16 1.0 0.0
91.0 90.0 89.0 -0.16439898312091827 0.986393928527832 0.0
91.0 90.0 90.0 -0.3162277638912201 0.9486833214759827 0.0
91.0 90.0 91.0 -0.6246950626373291 0.4685212969779968 -0.6246950626373291
90.0 90.0 92.0 -0.7071067690849304 0.7071067690849304 -1.5700924318127872e-16
91.0 90.0 91.0 -0.5144957304000854 1.904016774770972e-16 -0.8574929237365723
90.0 90.0 93.0 -0.8703882694244385 0.34815531969070435 -0.34815531969070435
91.0 89.0 108.0 0.0 -0.8944271802902222 0.4472135901451111
91.0 89.0 109.0 0.0 -1.0 0.0
91.0 89.0 110.0 0.0 -1.0 0.0
91.0 89.0 111.0 -6.34413185289139e-17 -1.0 1.268826370578278e-16
91.0 90.0 112.0 -0.14002801477909088 -0.7001400589942932 0.7001400589942932
91.0 90.0 129.0 0.0 -0.7071067690849304 -0.7071067690849304
91.0 89.0 130.0 0.0 -1.0 -1.1102230246251565e-16
91.0 89.0 131.0 0.0 -0.8944271802902222 -0.4472135901451111
91.0 90.0 138.0 0.0 0.0 1.0
91.0 91.0 92.0 -1.6653345369377348e-16 1.0 -1.6653345369377348e-16
91.0 91.0 93.0 -0.16439898312091827 0.986393928527832 0.0
91.0 91.0 94.0 -0.3162277638912201 0.9486833214759827 0.0
91.0 91.0 95.0 -0.6246950626373291 0.4685212969779968 -0.6246950626373291
90.0 91.0 96.0 -0.7071067690849304 0.7071067690849304 -1.5700924318127872e-16
91.0 91.0 95.0 -0.5144957304000854 1.904016774770972e-16 -0.8574929237365723
90.0 91.0 97.0 -0.8703882694244385 0.34815531969070435 -0.34815531969070435
91.0 90.0 112.0 -0.3244428336620331 -0.8111070990562439 0.4866642653942108
91.0 90.0 113.0 -0.49613893032073975 -0.8682431578636169 0.0
91.0 90.0 114.0 0.0 -1.0 0.0
91.0 90.0 115.0 0.0 -1.0 0.0
91.0 90.0 116.0 0.0 -1.0 0.0
91.0 90.0 117.0 0.0 -1.0 0.0
91.0 90.0 118.0 0.0 -1.0 0.0
91.0 90.0 119.0 -6.34413185289139e-17 -1.0 1.268826370578278e-16
91.0 91.0 120.0 -0.14002801477909088 -0.7001400589942932 0.7001400589942932
90.0 91.0 124.0 -0.8574929237365723 -0.5144957304000854 -7.61606696673499e-17
91.0 91.0 123.0 -0.14002801477909088 -0.7001400589942932 -0.7001400589942932
91.0 90.0 124.0 -3.700743525707937e-17 -1.0 -1.1102230246251565e-16
91.0 90.0 125.0 -6.34413185289139e-17 -1.0 0.0
90.0 91.0 125.0 -0.5144957304000854 -0.6859943270683289 -0.5144957304000854
91.0 90.0 126.0 -4.440892164675075e-17 -1.0 0.0
91.0 90.0 127.0 0.0 -1.0 0.0
91.0 90.0 128.0 0.0 -1.0 0.0
91.0 90.0 129.0 0.0 -0.8944271802902222 -0.4472135901451111
90.0 91.0 136.0 -0.8017837405204773 0.26726123690605164 0.5345224738121033
90.0 91.0 137.0 -0.9284766912460327 0.3713906705379486 8.246529471244126e-17
91.0 91.0 138.0 -0.39391928911209106 5.831177302712557e-17 0.9191450476646423
91.0 92.0 96.0 -1.6653345369377348e-16 1.0 -1.6653345369377348e-16
91.0 92.0 97.0 -1.268826370578278e-16 1.0 0.0
91.0 92.0 98.0 0.0 1.0 0.0
91.0 92.0 99.0 0.0 0.7071067690849304 -0.7071067690849304
91.0 92.0 99.0 0.0 2.220446049250313e-16 -1.0
91.0 91.0 120.0 -0.3244428336620331 -0.8111070990562439 0.4866642653942108
91.0 91.0 121.0 -0.49613893032073975 -0.8682431578636169 0.0
91.0 91.0 122.0 0.0 -1.0 0.0
91.0 91.0 123.0 0.0 -0.8682431578636169 -0.49613893032073975
90.0 92.0 134.0 -0.8017837405204773 0.26726123690605164 0.5345224738121033
90.0 92.0 135.0 -0.9284766912460327 0.3713906705379486 8.246529471244126e-17
91.0 92.0 136.0 -0.4472135901451111 1.9860272988175213e-16 0.8944271802902222
91.0 92.0 136.0 -0.3333333432674408 0.6666666865348816 0.6666666865348816
91.0 92.0 137.0 -2.220446049250313e-16 1.0 3.3306690738754696e-16
91.0 93.0 100.0 0.0 1.0 -2.220446049250313e-16
91.0 93.0 101.0 -0.1961161345243454 0.9805806875228882 0.0
91.0 93.0 102.0 -0.2747211158275604 0.9615239500999451 0.0
91.0 93.0 103.0 -0.4472135901451111 0.8944271802902222 0.0
91.0 93.0 104.0 -0.4472135901451111 0.8944271802902222 0.0
91.0 93.0 105.0 -0.6246950626373291 0.4685212969779968 -0.6246950626373291
90.0 93.0 106.0 -0.7071067690849304 0.7071067690849304 -1.5700924318127872e-16
91.0 93.0 105.0 -0.5144957304000854 1.904016774770972e-16 -0.8574929237365723
90.0 93.0 107.0 -0.8944271802902222 0.4472135901451111 0.0
90.0 93.0 108.0 -0.8944271802902222 0.4472135901451111 0.0
90.0 93.0 109.0 -0.8571428656578064 0.2857142984867096 -0.4285714328289032
90.0 93.0 130.0 -0.7844645380973816 0.1961161345243454 0.588348388671875
90.0 93.0 131.0 -0.8944271802902222 0.4472135901451111 0.0
90.0 93.0 132.0 -0.8944271802902222 0.4472135901451111 0.0
90.0 93.0 133.0 -0.9284766912460327 0.3713906705379486 8.246529471244126e-17
91.0 93.0 134.0 -0.4472135901451111 1.9860272988175213e-16 0.8944271802902222
91.0 93.0 134.0 -0.3333333432674408 0.6666666865348816 0.6666666865348816
91.0 93.0 135.0 -2.220446049250313e-16 1.0 3.3306690738754696e-16
91.0 94.0 106.0 -1.6653345369377348e-16 1.0 -1.6653345369377348e-16
91.0 94.0 107.0 -1.1102230246251565e-16 1.0 0.0
91.0 94.0 108.0 -1.1102230246251565e-16 1.0 0.0
91.0 94.0 109.0 -0.5570859909057617 0.3713906705379486 -0.7427813410758972
90.0 94.0 110.0 -0.9486833214759827 0.3162277638912201 -2.1065001331610104e-16
91.0 94.0 109.0 -0.16439898312091827 2.1902345016041203e-16 -0.986393928527832
90.0 94.0 111.0 -0.8703882694244385 0.34815531969070435 -0.34815531969070435
90.0 94.0 124.0 -0.8017837405204773 0.26726123690605164 0.5345224738121033
90.0 94.0 125.0 -0.8944271802902222 0.4472135901451111 0.0
90.0 94.0 126.0 -0.8944271802902222 0.4472135901451111 0.0
90.0 94.0 127.0 -0.8574929237365723 0.5144957304000854 7.61606696673499e-17
91.0 94.0 128.0 -0.5812382102012634 1.806851243111267e-16 0.8137334585189819
91.0 94.0 128.0 -0.6859943270683289 0.5144957304000854 0.5144957304000854
91.0 94.0 129.0 -0.1414213627576828 0.9899494647979736 0.0
91.0 94.0 130.0 -0.1414213627576828 0.9899494647979736 0.0
91.0 94.0 131.0 -1.1102230246251565e-16 1.0 0.0
91.0 94.0 132.0 -1.1102230246251565e-16 1.0 0.0
91.0 94.0 133.0 -2.220446049250313e-16 1.0 3.3306690738754696e-16
91.0 95.0 110.0 -1.6653345369377348e-16 1.0 -1.1102230246251565e-16
91.0 95.0 111.0 -0.16439898312091827 0.986393928527832 0.0
91.0 95.0 112.0 -0.3162277638912201 0.9486833214759827 0.0
91.0 95.0 113.0 -0.4472135901451111 0.8944271802902222 0.0
91.0 95.0 114.0 -0.4472135901451111 0.8944271802902222 0.0
91.0 95.0 115.0 -0.4472135901451111 0.8944271802902222 0.0
91.0 95.0 116.0 -0.4472135901451111 0.8944271802902222 0.0
91.0 95.0 117.0 -0.6246950626373291 0.4685212969779968 -0.6246950626373291
90.0 95.0 118.0 -0.7071067690849304 0.7071067690849304 -1.5700924318127872e-16
91.0 95.0 117.0 -0.4472135901451111 1.9860272988175213e-16 -0.8944271802902222
90.0 95.0 119.0 -0.8571428656578064 0.2857142984867096 -0.4285714328289032
90.0 95.0 122.0 -0.8017837405204773 0.26726123690605164 0.5345224738121033
90.0 95.0 123.0 -0.9284766912460327 0.3713906705379486 8.246529471244126e-17
91.0 95.0 124.0 -0.5547001957893372 1.8475228535626623e-16 0.8320503234863281
91.0 95.0 124.0 -0.6246950626373291 0.6246950626373291 0.4685212969779968
91.0 95.0 125.0 -0.4472135901451111 0.8944271802902222 0.0
91.0 95.0 126.0 -0.4472135901451111 0.8944271802902222 0.0
91.0 95.0 127.0 -0.4472135901451111 0.8944271802902222 2.97904108057518e-16
91.0 96.0 118.0 -0.4472135901451111 0.8944271802902222 -1.9860272988175213e-16
91.0 96.0 119.0 -0.6666666865348816 0.3333333432674408 -0.6666666865348816
90.0 96.0 120.0 -0.9486833214759827 0.3162277638912201 -2.1065001331610104e-16
91.0 96.0 119.0 -0.5144957304000854 1.904016774770972e-16 -0.8574929237365723
90.0 96.0 121.0 -0.9284766912460327 0.3713906705379486 8.246529471244126e-17
91.0 96.0 122.0 -0.5547001957893372 1.8475228535626623e-16 0.8320503234863281
91.0 96.0 122.0 -0.6246950626373291 0.6246950626373291 0.4685212969779968
91.0 96.0 123.0 -0.8320503234863281 0.5547001957893372 1.8475228535626623e-16
91.0 97.0 120.0 -1.6653345369377348e-16 1.0 -1.6653345369377348e-16
91.0 97.0 121.0 -2.220446049250313e-16 1.0 4.440892098500626e-16
91.0 76.0 146.0 -1.0 -6.34413185289139e-17 -1.268826370578278e-16
92.0 76.0 145.0 -0.14002801477909088 -0.7001400589942932 -0.7001400589942932
92.0 75.0 146.0 -0.5144957304000854 -0.8574929237365723 -1.142410011923024e-16
92.0 75.0 147.0 -0.4472135901451111 -0.8944271802902222 6.620091216639901e-17
91.0 76.0 147.0 -1.0 -5.551115123125783e-17 1.6653345369377348e-16
92.0 76.0 148.0 -0.3244428336620331 -0.4866642653942108 0.8111070990562439
92.0 77.0 143.0 0.0 -0.4472135901451111 -0.8944271802902222
92.0 76.0 144.0 0.0 -1.0 -1.1102230246251565e-16
92.0 76.0 145.0 -7.061004291165776e-17 -0.847998321056366 -0.5299989581108093
91.0 77.0 146.0 -0.8451542258262634 -0.16903084516525269 0.5070925354957581
91.0 77.0 147.0 -1.0 0.0 1.332267682489747e-16
92.0 77.0 148.0 -0.49613893032073975 0.0 0.8682431578636169
92.0 78.0 143.0 0.0 0.0 -1.0
91.0 78.0 146.0 -0.8574929237365723 0.0 0.5144957304000854
91.0 78.0 147.0 -1.0 0.0 1.332267682489747e-16
92.0 78.0 148.0 -0.3713906705379486 0.0 0.9284766912460327
92.0 79.0 143.0 0.0 -0.4472135901451111 -0.8944271802902222
91.0 79.0 146.0 -0.8574929237365723 0.0 0.5144957304000854
91.0 79.0 147.0 -1.0 0.0 1.332267682489747e-16
92.0 79.0 148.0 -0.3162277638912201 0.0 0.9486833214759827
92.0 80.0 141.0 0.0 -0.4472135901451111 -0.8944271802902222
92.0 79.0 142.0 0.0 -1.0 -1.1102230246251565e-16
92.0 79.0 143.0 0.0 -0.8944271802902222 -0.4472135901451111
91.0 80.0 146.0 -0.800000011920929 1.332267682489747e-16 0.6000000238418579
91.0 80.0 147.0 -1.0 1.332267682489747e-16 8.88178432935015e-17
92.0 80.0 148.0 -0.2747211158275604 9.150051575146408e-17 0.9615239500999451
92.0 81.0 141.0 0.0 -0.49613893032073975 -0.8682431578636169
92.0 81.0 146.0 -0.40824830532073975 0.8164966106414795 0.40824830532073975
92.0 81.0 146.0 -0.24253562092781067 1.0770745225832575e-16 0.9701424837112427
92.0 81.0 147.0 -0.4472135901451111 0.8944271802902222 2.97904108057518e-16
92.0 82.0 139.0 0.13018891215324402 -0.39056673645973206 -0.9113223552703857
92.0 81.0 140.0 8.88178432935015e-17 -1.0 -8.88178432935015e-17
92.0 81.0 141.0 3.3100456083199505e-17 -0.8944271802902222 -0.4472135901451111
92.0 82.0 146.0 0.0 0.0 1.0
92.0 83.0 139.0 0.0 0.0 -1.0
92.0 83.0 146.0 0.0 1.268826370578278e-16 1.0
92.0 84.0 139.0 0.0 -0.4472135901451111 -0.8944271802902222
92.0 84.0 144.0 -0.48507124185562134 0.7276068925857544 0.48507124185562134
92.0 84.0 144.0 -0.2747211158275604 9.150051575146408e-17 0.9615239500999451
92.0 84.0 145.0 -0.3162277638912201 0.9486833214759827 2.1065001331610104e-16
92.0 85.0 137.0 0.0 -0.7071067690849304 -0.7071067690849304
92.0 84.0 138.0 0.0 -1.0 -1.1102230246251565e-16
92.0 84.0 139.0 0.0 -0.8944271802902222 -0.4472135901451111
92.0 85.0 144.0 0.0 0.0 1.0
91.0 86.0 76.0 -1.0 -8.88178432935015e-17 -8.88178432935015e-17
92.0 86.0 75.0 -0.31799936294555664 -0.423999160528183 -0.847998321056366
92.0 85.0 76.0 -8.88178432935015e-17 -1.0 -8.88178432935015e-17
92.0 85.0 77.0 -1.1102230246251565e-16 -1.0 0.0
91.0 86.0 77.0 -1.0 -1.332267682489747e-16 0.0
92.0 85.0 78.0 -1.1102230246251565e-16 -1.0 0.0
91.0 86.0 78.0 -0.8682431578636169 -0.49613893032073975 0.0
92.0 85.0 79.0 -6.34413185289139e-17 -1.0 0.0
91.0 86.0 79.0 -0.5144957304000854 -0.6859943270683289 -0.5144957304000854
92.0 85.0 80.0 -4.440892164675075e-17 -1.0 0.0
92.0 85.0 81.0 -6.34413185289139e-17 -1.0 1.268826370578278e-16
92.0 86.0 82.0 -0.14002801477909088 -0.7001400589942932 0.7001400589942932
91.0 86.0 86.0 -0.8574929237365723 -0.5144957304000854 -7.61606696673499e-17
92.0 86.0 85.0 -0.27216553688049316 -0.6804138422012329 -0.6804138422012329
92.0 85.0 86.0 -1.268826370578278e-16 -1.0 -1.268826370578278e-16
92.0 85.0 87.0 -1.1102230246251565e-16 -1.0 0.0
91.0 86.0 87.0 -0.8944271802902222 -0.4472135901451111 0.0
92.0 85.0 88.0 -1.1102230246251565e-16 -1.0 0.0
91.0 86.0 88.0 -0.8944271802902222 -0.4472135901451111 0.0
92.0 85.0 89.0 -8.88178432935015e-17 -1.0 8.88178432935015e-17
91.0 86.0 89.0 -0.800000011920929 -0.6000000238418579 1.332267682489747e-16
92.0 86.0 90.0 -0.11704114824533463 -0.702246904373169 0.702246904373169
92.0 86.0 135.0 0.13018891215324402 -0.39056673645973206 -0.9113223552703857
92.0 85.0 136.0 8.88178432935015e-17 -1.0 -8.88178432935015e-17
92.0 85.0 137.0 3.3100456083199505e-17 -0.8944271802902222 -0.4472135901451111
91.0 86.0 142.0 -0.7844645380973816 0.1961161345243454 0.588348388671875
91.0 86.0 143.0 -0.9284766912460327 0.3713906705379486 8.246529471244126e-17
92.0 86.0 144.0 -0.39391928911209106 5.831177302712557e-17 0.9191450476646423
91.0 87.0 76.0 -1.0 0.0 -1.6653345369377348e-16
92.0 87.0 75.0 -0.49613893032073975 0.0 -0.8682431578636169
91.0 87.0 77.0 -0.6246950626373291 -0.4685212969779968 -0.6246950626373291
92.0 86.0 82.0 -0.3244428336620331 -0.8111070990562439 0.4866642653942108
92.0 86.0 83.0 -0.4472135901451111 -0.8944271802902222 0.0
92.0 86.0 84.0 -0.4472135901451111 -0.8944271802902222 0.0
92.0 86.0 85.0 -0.3665083348751068 -0.8551861047744751 -0.3665083348751068
92.0 86.0 90.0 0.0 -0.8682431578636169 0.49613893032073975
92.0 86.0 91.0 0.0 -1.0 0.0
92.0 86.0 92.0 0.0 -1.0 0.0
92.0 86.0 93.0 0.0 -1.0 0.0
92.0 86.0 94.0 0.0 -1.0 0.0
92.0 86.0 95.0 0.0 -1.0 1.1102230246251565e-16
92.0 87.0 96.0 0.0 -0.7071067690849304 0.7071067690849304
92.0 87.0 135.0 0.0 -0.5144957304000854 -0.8574929237365723
92.0 87.0 142.0 -1.332267682489747e-16 0.800000011920929 0.6000000238418579
92.0 87.0 142.0 0.0 2.220446049250313e-16 1.0
92.0 87.0 143.0 -2.220446049250313e-16 1.0 3.3306690738754696e-16
91.0 88.0 76.0 -1.0 1.4802974102831747e-16 -2.220446049250313e-16
92.0 88.0 75.0 -0.1961161345243454 1.3063958552092525e-16 -0.9805806875228882
91.0 88.0 77.0 -0.8574929237365723 1.142410011923024e-16 -0.5144957304000854
92.0 87.0 96.0 0.0 -0.8944271802902222 0.4472135901451111
92.0 87.0 97.0 0.0 -1.0 0.0
92.0 87.0 98.0 0.0 -1.0 0.0
92.0 87.0 99.0 0.0 -1.0 0.0
92.0 87.0 100.0 0.0 -1.0 0.0
92.0 87.0 101.0 0.0 -1.0 1.1102230246251565e-16
92.0 88.0 102.0 0.0 -0.7071067690849304 0.7071067690849304
92.0 88.0 133.0 0.0 -0.7071067690849304 -0.7071067690849304
92.0 87.0 134.0 0.0 -1.0 -1.1102230246251565e-16
92.0 87.0 135.0 0.0 -0.8944271802902222 -0.4472135901451111
92.0 88.0 140.0 0.0 0.7071067690849304 0.7071067690849304
92.0 88.0 140.0 0.0 1.332267682489747e-16 1.0
92.0 88.0 141.0 0.0 1.0 2.220446049250313e-16
92.0 89.0 76.0 -1.6653345369377348e-16 1.0 -1.1102230246251565e-16
92.0 89.0 77.0 -0.16439898312091827 0.986393928527832 0.0
92.0 89.0 78.0 -0.3162277638912201 0.9486833214759827 0.0
92.0 89.0 79.0 -0.4472135901451111 0.8944271802902222 0.0
92.0 89.0 80.0 -0.4472135901451111 0.8944271802902222 0.0
92.0 89.0 81.0 -0.4472135901451111 0.8944271802902222 0.0
92.0 89.0 82.0 -0.4472135901451111 0.8944271802902222 0.0
92.0 89.0 83.0 -0.22941572964191437 0.6882472038269043 -0.6882472038269043
92.0 89.0 83.0 -0.3713906705379486 2.061632400898256e-16 -0.9284766912460327
92.0 88.0 102.0 0.0 -0.8944271802902222 0.4472135901451111
92.0 88.0 103.0 0.0 -1.0 0.0
92.0 88.0 104.0 0.0 -1.0 0.0
92.0 88.0 105.0 0.0 -1.0 0.0
92.0 88.0 106.0 0.0 -1.0 0.0
92.0 88.0 107.0 0.0 -1.0 1.1102230246251565e-16
92.0 89.0 108.0 0.0 -0.7071067690849304 0.7071067690849304
92.0 89.0 131.0 0.0 -0.7071067690849304 -0.7071067690849304
92.0 88.0 132.0 0.0 -1.0 -1.1102230246251565e-16
92.0 88.0 133.0 0.0 -0.8944271802902222 -0.4472135901451111
91.0 89.0 138.0 -0.7844645380973816 0.1961161345243454 0.588348388671875
91.0 89.0 139.0 -0.9284766912460327 0.3713906705379486 8.246529471244126e-17
